842
-0.015726 -0.069184 1.213835 0.929557 -0.366628 0.038839
0.232713 -0.034289 1.871392 0.854886 -0.019652 -0.518443
-0.043706 -0.123091 1.765840 0.735722 -0.254957 0.627463
0.207721 0.022019 1.851467 0.777021 -0.604563 0.175336
0.105947 0.018323 1.154966 0.672442 0.736880 -0.069500
0.217309 -0.297403 1.768271 0.058413 -0.037170 -0.997600
0.243853 -0.357426 1.795349 0.574228 -0.459654 0.677481
0.180507 -0.139731 2.046074 0.942083 -0.232661 0.241553
0.152013 -0.135353 1.455631 0.049052 -0.091169 -0.994627
0.155803 -0.130400 1.233676 0.680722 0.732522 0.005452
0.061005 -0.176732 1.343392 0.928454 -0.367838 0.051658
0.026767 -0.210377 1.759841 0.904439 0.142325 0.402161
0.069312 -0.112463 1.986844 0.902176 -0.095464 -0.420671
0.071047 1.600917 -0.166864 0.467152 -0.023089 -0.883875
-0.018559 -0.579919 1.986835 0.585852 0.038751 0.809491
0.083445 -0.124386 1.040299 0.924546 -0.373931 0.073421
-0.010941 -0.328059 1.771758 0.527394 -0.145874 0.837004
0.248555 -0.833630 1.599018 0.176761 0.108825 -0.978219
-0.054017 0.788899 -0.337921 0.281126 -0.192703 -0.940124
0.005402 -0.467688 1.808039 0.179761 -0.249085 0.951653
0.047543 -0.338228 1.879753 0.784078 -0.185631 0.592252
0.114443 1.757301 -0.219808 0.376642 0.237029 -0.895521
-0.035831 1.459518 -0.419923 0.267979 0.354733 -0.895741
-0.009173 -0.483438 1.448958 0.024934 -0.105581 -0.994098
0.122459 -0.282058 2.083337 0.709094 -0.536744 -0.457265
0.051755 -0.070056 1.965197 0.814959 0.278742 0.508079
0.184071 2.280933 -0.863820 0.809340 -0.158184 -0.565639
-0.025280 -0.166501 2.152487 0.411708 0.162668 0.896680
0.157341 2.091766 0.439541 0.325901 0.725660 0.605975
0.223301 -0.117168 1.934722 0.361627 -0.890820 0.275072
0.106918 0.232757 0.425674 0.120118 -0.090811 0.988598
0.226550 -0.023091 1.853044 0.510171 -0.055533 0.858278
0.019646 -0.284943 1.970561 0.388543 -0.481998 0.785311
0.194711 1.402455 -0.283167 0.302139 0.323122 -0.896830
0.067371 1.846656 -0.468481 0.477379 -0.239354 -0.845470
0.125418 -0.953610 1.754379 0.689598 -0.159683 0.706368
0.148011 -0.147099 1.791375 0.849882 -0.069153 0.522417
0.038268 -0.205836 1.953967 0.475958 -0.162813 0.864266
0.271339 -0.425278 1.542977 0.059479 0.218474 -0.974028
0.087361 -0.091033 2.071215 0.620708 -0.039268 -0.783058
0.017770 -0.200588 1.967937 0.858750 -0.426136 0.284528
0.014255 0.164447 -0.389776 0.376464 -0.614090 -0.693663
0.067472 -0.884937 1.786752 0.585403 -0.486586 0.648488
0.199286 -0.076942 1.812938 0.273977 -0.393249 0.877663
0.271856 -0.238172 1.757793 0.756919 -0.249913 0.603836
0.121845 -1.099107 1.809240 0.303099 -0.795050 -0.525383
0.012518 -0.200742 2.044490 0.477369 -0.249715 0.842473
0.056906 -0.150155 1.654740 0.773730 -0.411047 0.482061
0.035808 -0.042069 2.094732 0.876300 0.335480 0.345762
-0.061097 -0.078034 1.791660 0.175043 -0.964634 0.197083
0.074807 2.418122 -0.504041 0.677021 0.695218 0.241483
0.256377 2.314819 -0.627166 0.527734 0.748528 0.401501
0.000200 -0.463058 0.891645 0.649308 -0.751155 0.119014
0.119405 -1.235660 1.797775 0.354519 -0.934773 0.022717
0.055288 -0.057508 1.338009 0.653816 -0.755180 -0.047194
0.016102 0.081923 -0.372699 0.335169 -0.470768 -0.816112
0.190922 -0.227791 -0.025104 0.341838 -0.727963 -0.594321
0.065007 -0.066909 1.814717 0.771326 -0.238566 -0.590036
0.262119 0.057121 2.013774 0.408845 0.233010 0.882356
0.218580 0.325840 -0.619436 0.321374 -0.337490 -0.884771
-0.063096 -0.531644 1.892238 0.822682 0.082712 0.562453
0.233774 -0.265349 1.479135 0.015373 -0.073984 -0.997141
0.125562 -1.084702 1.925775 0.656232 -0.717462 0.233684
-0.039830 -1.096202 2.016448 0.686003 -0.194818 0.701032
0.184389 2.271033 -0.610665 0.578608 -0.465430 -0.669767
0.146986 0.234748 0.403087 0.134651 0.093922 0.986432
0.260135 -0.961041 1.913727 0.645730 -0.746785 0.159200
0.177265 -0.104352 2.107620 0.426401 -0.323184 0.844828
-0.047705 -0.179880 1.748422 0.673384 -0.170126 0.719452
-0.066784 -0.827374 1.844426 0.724471 -0.321390 0.609795
-0.012302 -0.482492 1.857420 0.896353 0.074842 0.436978
0.160456 -1.032845 1.679326 0.240862 -0.681872 -0.690678
0.254410 1.885548 0.295354 0.342793 0.801702 0.489659
0.061523 1.833947 -0.313170 0.450549 -0.360172 -0.816873
0.241726 -0.077359 1.863635 0.228397 -0.002690 0.973564
0.268485 -0.009562 1.834393 0.268192 0.020251 -0.963153
0.010797 -0.487554 1.656598 0.028862 0.048204 -0.998420
0.158785 -0.078171 1.906161 0.227075 -0.516568 0.825587
0.140771 0.246634 1.951362 0.544697 0.722574 0.425666
0.199039 -0.060409 1.812125 0.679945 0.364281 0.636376
0.080887 -0.182340 1.312477 0.689774 -0.720412 0.072239
-0.028537 -0.983024 1.821597 0.313042 -0.783522 0.536747
-0.066078 -0.328195 1.814116 0.521028 -0.146886 -0.840806
-0.003811 -0.247473 2.022976 0.535514 -0.504378 -0.677368
0.029751 -0.232565 1.911223 0.465121 -0.884952 -0.022839
0.175070 -0.227558 1.821371 0.674636 -0.715496 -0.181469
0.107930 -0.319900 1.756154 0.603828 -0.000397 0.797115
0.098463 -0.305398 0.213614 0.257187 -0.838028 -0.481211
0.245009 0.029262 1.554036 0.109607 0.960504 -0.255771
0.141303 2.640289 -0.765848 0.779058 0.438918 -0.447682
0.147781 -0.048616 0.376180 0.187264 0.320855 0.928431
0.128656 -0.235548 1.356225 0.709709 -0.693219 0.125538
0.261224 -1.013856 2.001004 0.644291 -0.549769 0.531643
0.134144 -1.087019 2.007475 -0.958202 -0.101117 0.267629
0.194758 -1.008154 1.744968 -0.999834 0.017080 0.006419
0.029397 -1.053804 1.919286 -0.344672 -0.196656 0.917893
0.219175 -0.058130 1.701849 0.209998 0.652629 -0.727995
-0.069975 -0.361252 1.806512 0.609906 -0.425829 0.668344
0.222931 -0.807362 1.847291 0.525436 0.105711 0.844240
0.224339 -0.185896 1.718473 0.815264 -0.173234 0.552571
0.090331 -0.169650 1.807803 0.344060 -0.511595 0.787333
0.166794 -0.406692 1.079586 0.708750 -0.692701 0.133562
0.192493 0.006350 1.879294 0.162807 0.984107 0.070902
-0.056610 -0.015809 1.543077 0.280439 0.762278 -0.583341
-0.017017 -0.828982 2.034979 -0.829413 -0.557694 0.032418
0.091082 -1.112361 1.791042 -0.865210 -0.457560 -0.205063
0.220280 -1.105119 1.916567 -0.330874 -0.638175 0.695165
0.259763 -1.126007 1.613622 0.286197 -0.826044 -0.485533
0.244282 -0.376279 1.886074 0.630979 -0.510351 0.584301
0.196480 -0.226057 1.176288 0.723422 -0.679154 0.124139
0.056121 -1.091584 1.727045 -0.824094 0.407924 0.393022
-0.020126 -0.897575 1.818127 -0.874057 0.443814 0.197618
0.028629 -0.813101 1.900392 -0.231458 0.047671 0.971676
-0.033081 -0.416106 1.976426 0.552878 -0.498667 -0.667576
0.105346 2.203664 -0.052890 0.364469 0.821341 0.438819
0.042071 -1.101333 2.026169 0.600649 -0.241919 0.762034
0.259245 -0.988366 1.907903 -0.490366 -0.380968 0.783840
0.200690 -0.535164 1.710314 0.456905 0.084490 0.885494
0.141462 2.225324 -0.305900 0.416231 -0.445184 -0.792820
-0.078083 2.596250 -0.572852 0.634706 -0.003495 -0.772746
0.060284 -0.032355 2.001961 0.374375 -0.647272 0.663989
0.180423 -1.171906 1.680502 0.195589 -0.399197 0.895760
0.087313 -0.802679 1.888503 -0.350209 -0.730472 0.586315
0.179448 -0.057843 0.654073 0.263557 0.648334 0.714283
0.187671 2.279281 -0.626305 0.544275 -0.424373 -0.723653
0.156097 -0.067820 1.827840 0.391309 0.030305 0.919760
-0.034122 -0.962044 1.828624 -0.483640 0.053557 0.873627
0.172681 -0.159556 1.790082 0.826046 0.085002 0.557156
0.110164 -0.327444 1.133991 0.728505 -0.675273 0.115269
0.097898 -0.063861 1.946233 0.181752 0.020691 0.983127
0.189020 -1.183502 1.420310 0.401087 -0.719173 -0.567380
0.001462 2.392915 -0.535429 0.464903 0.775764 0.426679
0.126487 0.187796 2.002878 0.578136 0.604936 0.547550
-0.031256 0.280799 1.597774 0.162998 0.834323 -0.526627
0.113768 2.421464 -0.662397 0.599118 0.799973 -0.033184
0.109519 -0.060178 1.933274 0.327287 0.015490 -0.944798
-0.033469 -0.272667 1.991681 0.669253 -0.487981 -0.560335
0.127022 -0.219517 1.913771 0.368270 -0.061000 -0.927716
0.168461 -0.119415 1.589958 0.217775 0.590022 -0.777463
0.246387 0.016795 1.867431 0.732893 -0.656015 -0.180312
0.199475 -0.063233 0.445482 0.297700 0.855016 0.424643
0.062563 -0.107231 1.700608 0.303500 0.856125 -0.418256
0.050743 -0.269065 1.978346 0.453622 -0.403296 -0.794720
0.031201 0.145064 0.629590 0.318647 0.897617 0.304544
0.111035 -0.770343 2.004473 0.572780 -0.037387 0.818856
-0.046165 -0.862355 1.872175 -0.377735 -0.921733 -0.087888
0.199971 -0.994459 1.817249 -0.512542 -0.783893 -0.350446
0.254235 -0.977186 2.006198 -0.092670 -0.925341 0.367636
0.161617 -0.972994 1.883208 -0.062311 0.395906 0.916175
0.160044 -0.469326 1.936393 0.621059 -0.019766 0.783515
-0.007430 -0.927127 1.857846 0.559880 -0.212165 0.800949
0.157281 -0.423377 0.250264 0.226564 -0.911273 -0.343874
-0.071209 -1.129191 1.758010 0.310283 -0.866242 -0.391599
0.136598 -0.358187 1.818028 0.534653 -0.251588 0.806752
-0.030405 0.072605 0.820242 0.331123 0.913498 0.236387
0.037858 -0.822527 1.999106 0.132053 -0.832302 0.538363
0.137134 0.192539 2.150703 0.429686 0.264375 0.863409
0.167120 -1.073652 1.994415 -0.496547 0.589334 0.637281
-0.078614 -0.825937 1.790830 -0.614387 0.720586 0.321380
0.239772 -1.121184 1.877888 -0.036759 0.114220 0.992775
-0.034285 -1.215265 1.741844 0.009475 0.275348 0.961298
-0.084286 -0.141402 2.010700 0.741960 -0.644626 0.184261
0.121676 -0.936833 1.886788 -0.153034 0.223868 0.962530
0.083014 0.031367 1.727416 0.202835 0.672993 -0.711294
0.022591 2.384014 -0.177046 0.377066 0.823338 0.424188
0.216109 -0.187725 2.000196 0.445212 -0.888434 0.111678
0.247321 -0.895435 1.479361 0.194760 -0.212177 -0.957627
-0.065564 -0.879379 1.736200 0.501110 -0.732453 0.460871
-0.088043 2.423126 -0.629914 0.423188 0.818126 0.389336
0.229338 -0.666831 1.947436 0.429095 0.004929 0.903246
-0.000823 -0.148275 1.380559 0.307330 0.897433 -0.316485
0.021711 2.196819 -0.707933 0.383349 -0.499790 -0.776694
0.125384 -1.139950 1.770396 0.390488 -0.381571 0.837808
0.170162 2.368526 -0.893307 0.462943 -0.321724 -0.825941
0.117957 -0.378926 1.947860 0.228132 0.137763 0.963835
0.187537 -0.251168 2.006097 0.292128 -0.059343 0.954536
0.250331 0.158719 1.792446 0.636989 0.538784 0.551323
-0.052506 -0.951067 1.912389 -0.168477 0.737483 0.654014
-0.020762 -0.930489 2.058819 0.548110 -0.424386 0.720744
0.120426 -0.254181 2.051995 0.286429 -0.140208 -0.947787
-0.001998 -1.113378 1.971602 0.508255 -0.853902 0.111930
0.046414 0.118923 0.807858 0.330659 0.929085 0.165728
0.109801 -0.155490 1.854860 0.691796 -0.317644 -0.648476
-0.034210 -0.198132 1.905828 0.768692 0.009869 0.639542
0.207811 -0.236213 1.956776 0.420240 -0.014846 0.907291
0.245477 -1.103318 1.878589 0.569431 -0.672479 0.472780
0.239487 -1.036202 1.822931 0.423319 -0.905712 -0.022077
-0.097443 -0.915140 1.811134 0.266716 -0.880363 -0.392203
0.211037 -1.124602 1.990268 0.419951 -0.900055 0.116367
0.179635 -0.060167 2.096949 0.322383 0.045643 -0.945508
0.159751 -0.014708 1.353666 0.300577 0.920200 -0.250770
0.094529 -0.843187 1.727941 0.330561 0.100829 0.938383
0.081364 -1.188028 1.914402 0.521034 -0.802612 0.290411
0.021273 -0.229899 1.790712 0.610700 -0.010966 0.791786
0.026901 -0.669211 1.368425 0.077990 0.307389 -0.948383
0.037572 -0.388542 0.483262 0.237211 -0.945059 -0.224932
0.188405 2.523812 -0.567244 0.412318 0.873791 0.257843
0.180726 -0.986263 1.844857 0.302217 0.622900 0.721568
0.117619 -0.826016 1.884205 0.231016 0.888050 0.397490
0.244658 -0.914318 1.795112 0.652302 -0.055772 0.755904
-0.040028 -0.023505 1.901641 0.793932 -0.404644 0.453801
0.096730 2.426845 -0.174364 0.357053 0.827338 0.433618
0.150284 0.026982 1.307623 0.301905 0.936918 -0.176175
-0.082064 -0.215078 2.035008 0.859785 -0.484356 -0.161770
0.209999 -0.009171 0.845152 0.324094 0.941813 0.089169
0.008547 -1.129377 1.938445 0.771937 -0.449864 0.449149
0.090039 -0.300974 1.963690 0.389308 -0.490198 -0.779836
0.217348 -0.959333 1.976157 0.720492 -0.095670 0.686832
0.025849 0.001067 1.326600 0.303717 0.949323 -0.080883
0.231379 -0.351235 0.434330 0.244827 -0.962745 -0.114815
-0.023897 -0.557099 1.625618 0.064044 0.330874 -0.941499
0.045732 -0.180471 2.008662 0.433109 -0.738606 -0.516603
-0.002169 -0.309848 1.749687 0.581736 -0.230857 0.779928
0.229639 -0.137262 1.011355 0.312327 0.949943 0.007756
0.009917 -0.800213 1.460770 0.107784 0.179377 -0.977858
0.060416 -0.265221 2.029130 0.287798 0.162132 0.943867
0.052349 2.443881 -0.524304 0.366482 -0.545569 -0.753688
0.145324 -1.109425 1.950180 0.886316 -0.459930 0.053924
0.187815 -1.071702 1.854377 0.872844 -0.445923 -0.198234
0.062466 -0.923651 1.743151 0.833145 -0.516769 0.197025
-0.027639 0.010602 1.860572 0.503755 0.588417 0.632452
0.056976 -0.445108 1.914158 0.426129 -0.050459 0.903254
0.073881 -0.190142 0.704062 0.253831 -0.967202 -0.009474
-0.070174 -0.082628 1.929519 0.127422 0.136334 0.982434
-0.034086 -0.872683 1.774860 0.842471 -0.246531 0.479026
0.125308 -1.013425 1.935639 0.918691 0.223198 0.325867
0.191403 -0.908929 1.917437 0.923261 0.350346 0.157625
-0.084509 -1.129258 1.732294 0.813404 -0.214085 0.540870
0.057599 -0.074617 2.092020 0.160368 0.016510 0.986919
0.156837 -0.281242 1.963626 0.234659 -0.010900 -0.972017
0.048056 -0.345334 1.913726 0.313141 0.093254 0.945117
0.061882 -0.980436 1.992347 0.584703 -0.455774 0.671113
0.141950 -0.189409 1.955932 0.157297 -0.132762 0.978587
0.121126 -0.405084 1.752183 0.283257 -0.168263 -0.944168
-0.025634 -0.358741 1.739288 0.137085 -0.484273 -0.864111
0.198560 0.208745 2.042681 0.135364 0.982801 0.125613
0.181616 -0.998475 1.835093 0.362881 -0.746849 0.557256
0.225929 -0.859177 1.983669 0.983587 -0.124814 0.130299
-0.050352 -1.057703 1.876828 0.997899 -0.059449 -0.025746
-0.089782 -0.814195 1.733621 0.868499 -0.319557 0.378937
0.088636 -0.252704 1.550842 0.068147 -0.099989 -0.992652
0.039591 -0.399973 1.484754 0.218020 -0.947322 -0.234623
-0.090040 -0.391312 1.449599 0.043919 -0.171533 -0.984199
0.117388 -0.063997 2.066768 0.149684 -0.269376 0.951331
0.134140 -0.121999 1.982973 0.626850 -0.231443 -0.743972
0.099076 0.086914 1.834433 0.156752 0.119995 0.980321
0.095248 -0.485228 1.554861 0.024623 -0.131924 -0.990954
0.135115 -0.578393 1.756632 0.055881 0.256508 -0.964925
-0.003409 -0.128571 1.424110 0.263700 -0.962884 0.057586
-0.003438 -0.280494 1.758375 0.411394 -0.058121 0.909603
-0.037568 -0.187925 1.981393 0.127985 -0.345279 0.929732
0.204634 -0.219854 1.734314 0.543413 -0.035077 0.838732
0.177866 -0.342900 1.774394 0.413212 -0.072882 0.907713
0.053254 -0.355789 0.945080 0.286537 -0.955294 0.072866
-0.027946 -0.978993 2.020499 0.385422 -0.640065 0.664655
0.135493 -0.989996 2.058346 0.426497 -0.372050 0.824426
0.168665 2.306581 -0.399270 0.320663 0.833182 0.450536
0.227124 2.219527 -0.624959 0.343689 -0.561367 -0.752824
0.089952 -0.406522 1.720340 0.017985 -0.056801 -0.998224
0.146429 -0.199557 1.496490 0.298484 -0.941420 0.156957
-0.066773 -0.947586 1.964682 0.498785 -0.490954 0.714267
0.120969 -0.027921 1.880093 0.761623 -0.272099 0.588126
0.171746 -0.388352 1.984691 0.207816 -0.010645 -0.978110
0.147502 -0.125925 1.729144 0.314510 0.134386 0.939693
-0.110384 -0.177943 2.011275 0.336520 0.172430 0.925755
-0.042464 -0.111957 1.954071 0.119788 -0.490689 0.863062
0.014330 -0.093356 1.919241 0.878152 -0.465253 -0.111303
0.157209 -0.563695 1.636615 0.033860 0.098850 -0.994526
-0.055376 2.659607 -0.809484 0.415050 0.650150 -0.636427
0.057681 -0.014051 2.024382 0.385943 0.464974 0.796773
0.006467 -0.155318 1.359235 0.331466 -0.918900 0.213900
0.015266 -0.378043 1.967886 0.412863 -0.137787 -0.900311
-0.015937 -0.459785 1.169902 0.348079 -0.917034 0.194652
0.083936 2.456322 -0.585015 0.320263 0.122730 -0.939345
0.204835 -0.276951 1.766954 0.385810 -0.077556 0.919313
0.019008 -0.947676 1.357636 0.115439 -0.114060 -0.986744
-0.011126 -0.482669 0.999660 0.333998 -0.934621 0.122181
0.137548 2.631845 -0.569738 0.291944 0.942334 -0.163629
0.066168 2.402921 -0.852927 0.304173 -0.515731 -0.800937
-0.029323 -0.321958 1.772347 0.420163 -0.137240 -0.897011
0.076916 -0.329964 1.304777 0.354671 -0.922162 0.154353
0.181349 -0.617916 2.066083 0.285733 0.156417 0.945458
-0.010559 0.282339 1.821141 0.178097 0.946061 0.270649
-0.031905 -0.285912 1.750411 0.536463 -0.362807 -0.761957
-0.106038 2.349573 -0.818941 0.251838 -0.322993 -0.912279
0.108783 -0.776086 1.769456 0.265013 0.098454 0.959205
-0.093137 -0.211149 1.879483 0.401177 0.196290 0.894722
0.164322 -0.138140 1.745117 0.560481 -0.040197 0.827191
0.069905 -0.067335 2.172311 0.213590 0.123830 0.969044
0.108649 -0.414790 1.927965 0.429537 -0.062500 -0.900884
0.045973 2.432992 -0.568726 0.270495 0.846274 0.458970
-0.110093 -1.113621 2.050052 0.417438 -0.296528 0.858962
0.165867 -0.359563 2.052204 0.259748 -0.893821 0.365534
0.052558 2.575544 -0.769694 0.229635 0.939319 0.254846
-0.032800 -0.036819 2.054756 0.687312 -0.141985 0.712350
0.116735 -1.143369 1.906217 0.328348 -0.839160 0.433588
-0.103852 -0.711841 2.032055 0.334410 0.078709 0.939135
-0.046646 -0.191578 2.035997 0.584280 0.034560 0.810816
-0.079713 2.452507 -0.777327 0.223833 0.876965 0.425242
0.183892 -0.397496 2.061774 0.453892 -0.779687 -0.431359
-0.135977 -0.127756 2.008337 0.879748 -0.410566 -0.239748
0.111175 -0.072869 1.973408 0.407350 0.055594 -0.911578
-0.002428 -0.125479 1.779724 0.678139 -0.029589 0.734338
0.015150 -0.282927 2.058579 0.531488 0.187529 0.826047
-0.122775 0.273827 1.861333 0.255117 0.873741 0.414116
0.103834 -0.476792 1.932065 0.256116 -0.013018 0.966558
0.144759 -0.327917 1.823122 0.365714 -0.129211 0.921714
0.037953 -0.109201 1.917036 0.567675 -0.169165 -0.805685
-0.075754 -0.910675 2.006679 0.291680 -0.551080 0.781814
0.157153 -0.185074 2.052710 0.612801 0.159732 0.773926
0.163378 -0.347418 1.796116 0.992522 -0.107478 -0.057857
0.091591 -0.334691 1.934545 0.312444 -0.892555 -0.325154
-0.110979 -0.243352 2.087844 0.975152 0.182303 -0.125872
-0.030977 -0.304951 1.950270 0.802954 -0.092057 0.588889
0.108984 0.081783 1.945594 0.185483 0.858935 0.477312
0.080140 -0.396477 1.836281 0.242999 -0.068455 0.967608
-0.021765 -0.857113 1.793308 0.262899 -0.756338 0.599030
0.029410 -0.190133 1.759099 0.575772 -0.680806 0.452758
0.111782 -0.341307 2.016257 0.964136 0.206601 -0.166608
0.035625 -0.097687 1.913044 0.984079 -0.161994 -0.073117
0.136957 -1.043987 2.069554 0.295199 -0.182491 0.937846
0.061584 -0.252644 1.979603 0.214777 -0.083774 0.973064
-0.142574 -0.011250 2.068522 0.211058 0.213461 0.953881
-0.065224 -0.315346 1.779564 0.168856 -0.096230 0.980932
-0.121888 0.000977 1.910348 0.125655 0.788775 0.601701
-0.065539 -0.112331 1.970554 0.179800 -0.959326 -0.217638
0.107749 -0.151417 2.053701 0.101672 -0.230376 0.967776
-0.007299 -0.291388 1.886869 0.066800 -0.833550 0.548390
0.030511 0.196603 1.962679 0.126075 0.533322 0.836465
0.102617 -0.160992 1.342727 -0.001155 0.994768 -0.102152
0.008661 0.104062 0.981162 -0.000798 0.999992 -0.003876
0.163135 -0.042292 1.273766 -0.000649 0.980719 -0.195424
-0.108240 0.959954 -0.577818 0.000009 0.166843 -0.985983
0.143653 1.392294 -0.486873 0.000008 0.301747 -0.953388
-0.144043 1.304905 -0.268959 0.000009 0.352389 -0.935854
-0.134087 1.559281 -0.340351 0.000012 0.135763 -0.990741
0.038121 1.425039 -0.223423 0.000012 0.298054 -0.954549
-0.009807 0.942521 -0.523777 0.000007 -0.004089 -0.999992
0.157756 1.793868 -0.212892 0.000009 -0.127515 -0.991837
0.077537 2.293919 -0.660455 0.000006 -0.560318 -0.828278
-0.099444 0.617190 -0.475801 0.000004 -0.168807 -0.985649
0.047348 2.077938 -0.628198 0.000004 -0.505389 -0.862891
-0.123887 2.363514 -0.721222 0.000002 -0.599759 -0.800181
-0.170612 1.720446 -0.475124 0.000007 -0.326282 -0.945273
0.123869 1.817695 -0.551412 0.000004 -0.433477 -0.901165
-0.123884 0.542223 -0.391616 0.000001 -0.314109 -0.949387
0.096288 2.400870 -0.542654 -0.000010 -0.592606 -0.805493
-0.150853 0.319067 1.744909 0.000001 0.999943 -0.010672
-0.096262 1.987003 0.088541 -0.000005 0.829572 0.558400
-0.117788 0.241534 0.565540 -0.000002 0.160275 0.987072
0.122036 0.560175 0.420501 -0.000001 -0.193464 0.981107
-0.044546 -1.041918 1.738833 -0.000003 -0.704986 -0.709221
0.021680 2.198663 -0.089479 -0.000007 0.870810 0.491619
0.058820 0.571246 0.714886 -0.000001 -0.249601 0.968349
-0.063012 0.155234 0.776209 -0.000005 0.918132 0.396274
0.142266 1.661520 0.579283 -0.000002 0.442972 0.896536
0.077761 0.866899 0.707361 -0.000001 -0.199483 0.979901
-0.053120 1.410806 0.733186 -0.000002 0.060914 0.998143
-0.121630 -0.134101 0.692816 0.001888 0.974964 0.222356
0.003158 -0.026211 1.667620 -0.000006 0.918012 -0.396553
-0.106941 -0.032616 1.599925 -0.000003 0.986353 -0.164647
-0.023639 -1.168036 1.758615 -0.000005 -0.789323 0.613978
0.052323 0.385813 -0.279495 -0.000004 -0.474588 -0.880208
0.159009 -0.398802 0.260303 -0.000002 -0.920817 -0.389994
-0.176316 1.684965 0.630401 -0.000003 0.596294 0.802766
0.112793 0.031710 0.570987 -0.000005 0.768817 0.639469
0.056979 0.871578 0.501676 -0.000001 -0.255577 0.966789
0.098947 0.163285 0.652995 0.000386 0.955414 0.295270
-0.013523 1.397022 0.624897 -0.000002 0.256361 0.966581
0.096829 1.052141 0.860150 -0.000001 -0.092815 0.995683
0.048211 -0.083336 0.967857 0.001629 0.997039 0.076880
0.011219 0.110093 1.540961 -0.000006 0.945893 -0.324480
0.000481 0.020932 1.387044 -0.000005 0.812262 -0.583292
-0.139808 0.048874 1.428300 -0.000004 0.602534 -0.798093
-0.003907 -1.141721 1.490355 -0.000006 -0.925661 -0.378355
-0.074489 -1.115135 1.943681 -0.000005 -0.997823 0.065953
-0.023925 -1.282522 1.797684 -0.000004 -0.390372 0.920657
0.142325 0.153843 2.077546 -0.000009 0.069797 0.997561
0.151547 0.040867 -0.241654 -0.000005 -0.630973 -0.775805
0.027570 -0.246695 -0.042327 -0.000004 -0.857870 -0.513867
-0.061555 1.837432 0.256013 -0.000004 0.728112 0.685458
0.100087 0.317296 0.637086 -0.000002 -0.055964 0.998433
-0.002261 0.250605 0.651560 -0.000003 0.417345 0.908748
-0.097170 -0.102797 1.424573 -0.000004 0.711918 -0.702262
0.084355 0.155196 1.522017 -0.000003 0.700733 -0.713424
0.151314 -1.153973 1.720426 -0.000005 -0.857829 -0.513934
0.097931 -1.299433 1.649913 -0.000004 -0.896273 -0.443502
0.078428 -0.986686 1.914728 -0.000001 0.220119 0.975473
0.127393 -0.488349 1.736740 -0.000013 -0.035641 0.999365
0.027237 -0.430408 1.935007 -0.000013 -0.073395 0.997303
0.006068 -0.537373 1.877094 -0.000011 -0.082030 0.996630
-0.118186 -0.286769 1.973145 -0.000008 -0.091030 0.995848
-0.009231 -0.322818 2.044566 -0.000001 -0.270533 0.962711
-0.058908 -0.117933 2.108052 -0.000015 -0.957170 -0.289528
0.054656 0.141968 1.851450 0.000005 0.800643 0.599142
0.021460 0.081701 2.052412 -0.000012 0.226157 0.974091
0.034626 2.566076 -0.566149 -0.000011 0.993984 -0.109528
-0.092649 2.368893 -0.576910 -0.000008 0.953496 0.301405
0.038671 2.453190 -0.499697 -0.000010 0.897849 0.440303
-0.004051 2.392857 -0.591777 -0.000011 0.880674 0.473723
0.024676 2.532229 -0.486296 -0.000010 0.879086 0.476662
0.089976 2.450695 -0.276535 -0.000010 0.885524 0.464594
0.044173 -0.485273 0.403792 -0.000003 -0.963484 -0.267766
0.055421 -0.397258 0.673393 -0.000004 -0.989308 -0.145839
-0.174678 -0.362481 0.619359 -0.000078 -0.999411 -0.034305
0.134319 -0.182800 0.784868 0.001049 -0.998871 0.047494
0.126390 -0.176236 0.931431 0.003182 0.988831 0.149006
-0.072263 -0.186545 1.106270 0.004543 -0.994539 0.104270
-0.027474 -0.103100 1.303351 -0.000252 0.963419 -0.267998
0.140931 -0.918669 1.476897 -0.000001 0.162027 -0.986786
0.027131 -0.708225 1.647457 -0.000003 0.316378 -0.948633
-0.074979 -0.768935 1.605307 -0.000002 0.335795 -0.941935
0.149106 -0.381399 1.569655 0.000081 -0.991771 -0.128024
0.137382 -0.095812 1.523140 -0.000298 -0.720899 -0.693040
0.011016 -0.453829 1.487011 -0.000002 0.281879 -0.959450
-0.022367 -0.148016 1.478134 -0.000002 -0.156215 -0.987723
0.152266 -0.432581 1.636168 -0.000002 -0.189895 -0.981804
-0.136270 -0.286317 1.444150 -0.000001 -0.131616 -0.991301
0.017674 -0.629305 1.613448 -0.000002 0.141312 -0.989965
-0.117570 -0.403442 1.460278 -0.000001 -0.033121 -0.999451
-0.147700 -0.957668 1.693652 -0.000026 0.467167 0.884169
-0.141037 -1.193868 1.846605 0.000002 0.780541 0.625104
0.143890 -1.189186 1.804052 0.000122 -0.778030 0.628227
-0.150320 0.239184 1.719120 0.000002 0.999174 0.040626
0.039676 -0.730025 1.795887 -0.000011 0.074489 0.997222
-0.027605 -0.694054 1.944492 -0.000011 0.166065 0.986115
-0.165080 -0.412462 1.933344 -0.000000 -0.864065 0.503381
0.160577 -0.390640 2.021492 -0.000011 -0.973511 -0.228641
0.046180 -1.049372 2.070713 -0.000009 0.087867 0.996132
0.030803 0.315527 1.924951 0.000002 0.992890 0.119036
0.071008 -0.142725 2.106845 -0.000010 -0.827142 0.561993
0.156105 0.089626 2.032790 0.000002 0.963909 0.266232
0.122629 -0.213692 2.020105 -0.000004 -0.478574 0.878047
-0.055286 0.081828 2.075469 0.000004 0.909987 0.414637
-0.057241 -0.329547 1.931662 -0.000003 -0.361307 0.932447
0.018671 -0.038555 1.973766 -0.000003 -0.296464 0.955044
0.117987 -0.138066 1.957305 -0.000005 0.062640 0.998036
-0.121237 -0.126628 2.032807 -0.000003 0.117150 0.993114
0.042407 -0.176955 1.881140 -0.000004 -0.165109 0.986275
-0.042099 0.011957 2.132211 -0.000003 0.046202 0.998932
-0.032325 2.111799 -0.232923 -0.000009 0.882288 0.470710
0.109634 0.084136 -0.259521 -0.000005 -0.763775 -0.645482
0.144014 0.104590 1.655940 -0.000003 0.887209 -0.461368
0.069740 -1.087650 1.514347 -0.000009 -0.630794 -0.775950
0.037980 -1.138198 1.764660 -0.000030 -0.507142 0.861862
0.027846 2.357944 -0.612619 -0.000011 0.685508 -0.728065
0.043137 -0.960081 1.360323 -0.000003 -0.171731 -0.985144
-0.115497 -0.961610 1.925118 -0.000012 -0.214309 0.976766
0.162804 0.265942 1.888743 -0.000004 0.548509 0.836145
-0.020980 2.349933 -0.699197 -0.000012 0.053360 -0.998575
-0.029658 2.298795 -0.674426 -0.000013 -0.328822 -0.944392
0.064938 2.329767 -0.664747 -0.000016 -0.523260 -0.852173
-0.169905 -1.032807 1.777645 0.000807 -0.858097 0.513487
-0.058439 -0.373085 1.485025 0.001808 -0.994734 0.102476
-0.074949 -1.169156 1.957784 0.002079 -0.999993 -0.003263
-0.106037 -0.477654 1.165465 0.006423 -0.987977 0.154468
0.141660 -0.229506 1.464456 0.003886 -0.979011 0.203768
0.007449 -0.431777 1.347887 0.004218 -0.970419 0.241389
0.130501 -0.341702 1.202670 0.004859 -0.978372 0.206797
-0.137316 0.180364 2.079297 -0.126110 0.533319 0.836461
-0.056832 -0.108377 2.039572 -0.066839 -0.833553 0.548381
0.071253 -0.332373 1.769124 -0.101725 -0.230361 0.967774
-0.190442 -0.119714 1.968917 -0.179875 -0.959297 -0.217700
0.133823 0.265974 2.076707 -0.125687 0.788772 0.601699
0.108683 -0.404250 1.902436 -0.168918 -0.096218 0.980922
0.013167 0.127201 1.983748 -0.211106 0.213464 0.953870
-0.008561 -0.355773 1.810975 -0.214841 -0.083768 0.973050
0.055060 -0.103274 2.038948 -0.984079 -0.161994 -0.073117
-0.158562 -0.954724 1.796576 -0.295255 -0.182495 0.937827
-0.119766 -0.099388 2.088397 -0.964136 0.206601 -0.166608
-0.191927 -0.375908 1.921192 -0.575908 -0.680734 0.452693
-0.185800 -1.020451 1.936301 -0.262249 -0.755394 0.600505
0.044451 -0.625081 1.918935 -0.243060 -0.068449 0.967593
-0.177386 0.212558 1.901013 -0.185526 0.858923 0.477317
-0.037527 -0.125135 1.883611 -0.802954 -0.092057 0.588889
-0.144722 -0.367684 1.747600 -0.975152 0.182303 -0.125872
-0.097012 -0.192755 2.038013 -0.312525 -0.892482 -0.325277
-0.102795 -0.331312 1.836553 -0.992529 -0.107412 -0.057870
-0.163140 -0.301549 1.861930 -0.612801 0.159732 0.773926
-0.152041 -0.867803 1.816848 -0.291781 -0.551079 0.781777
-0.089602 -0.330695 2.036315 -0.567675 -0.169165 -0.805685
-0.188924 -0.121585 1.749204 -0.365792 -0.129163 0.921690
-0.017777 -0.410521 1.911023 -0.256170 -0.013012 0.966544
-0.152580 0.019392 1.929887 -0.255165 0.873716 0.414140
0.104075 -0.179395 1.895455 -0.531488 0.187529 0.826047
0.072151 -0.292298 1.770653 -0.678139 -0.029589 0.734338
-0.163124 -0.067457 1.826271 -0.407350 0.055594 -0.911578
0.009860 -0.314200 1.788652 -0.879748 -0.410566 -0.239748
0.106283 -0.308578 1.893030 -0.453969 -0.779561 -0.431506
-0.197005 2.624450 -0.519126 -0.223879 0.876957 0.425235
-0.021001 -0.315800 1.753814 -0.584280 0.034560 0.810816
-0.173665 -0.919475 1.911161 -0.334469 0.078708 0.939114
0.122212 -1.037131 1.681850 -0.323115 -0.837262 0.441122
0.116353 -0.377565 1.754348 -0.687312 -0.141985 0.712350
0.073152 2.576245 -0.823914 -0.229682 0.939307 0.254849
-0.072139 -0.150498 1.887937 -0.259807 -0.893819 0.365497
-0.062770 -0.984122 1.820655 -0.417538 -0.296559 0.858903
-0.077161 2.455417 -0.451469 -0.270539 0.846265 0.458960
0.090827 -0.372574 2.027699 -0.429537 -0.062500 -0.900884
-0.215547 0.108171 2.175554 -0.213635 0.123841 0.969032
-0.191277 -0.109588 1.941008 -0.560507 -0.040154 0.827176
-0.159756 -0.115511 2.004182 -0.401177 0.196290 0.894722
0.083773 -0.499583 1.967764 -0.265061 0.098456 0.959192
-0.196356 2.470334 -0.657538 -0.251895 -0.322980 -0.912268
-0.172451 -0.331596 1.933760 -0.536459 -0.362719 -0.762002
-0.112358 0.219600 1.904547 -0.178129 0.946051 0.270663
-0.071139 -0.626272 1.960878 -0.285781 0.156416 0.945444
0.011019 -0.219620 1.828656 -0.420163 -0.137240 -0.897011
-0.097573 2.463600 -0.603675 -0.304247 -0.515727 -0.800911
0.070853 2.554400 -0.831885 -0.291996 0.942322 -0.163608
-0.110893 -0.871695 1.595791 -0.115454 -0.114061 -0.986742
0.022605 -0.257342 1.913979 -0.385888 -0.077533 0.919282
-0.231104 -0.461422 1.167835 -0.324246 -0.938363 0.119750
-0.071677 2.579729 -0.713761 -0.320335 0.122744 -0.939319
0.092334 -0.277577 1.250846 -0.344729 -0.926135 0.153087
0.027090 -0.142948 2.088499 -0.412863 -0.137787 -0.900311
0.038492 0.113479 1.855399 -0.386024 0.464965 0.796739
-0.033354 2.363062 -0.593353 -0.415124 0.650141 -0.636387
0.110156 -0.172973 1.126514 -0.341759 -0.919297 0.195175
0.063583 -0.481813 1.444531 -0.033866 0.098850 -0.994526
-0.225977 -0.278174 1.806839 -0.878152 -0.465253 -0.111303
-0.136734 -0.418935 2.099055 -0.119813 -0.490692 0.863056
-0.223778 -0.380240 1.968543 -0.336520 0.172430 0.925755
-0.018300 -0.364049 1.981829 -0.314510 0.134386 0.939693
-0.008690 -0.164114 1.823825 -0.207816 -0.010645 -0.978110
-0.050249 -0.168705 2.004051 -0.761622 -0.272098 0.588127
-0.232656 -0.974249 2.030592 -0.498934 -0.490933 0.714177
-0.149756 -0.371877 1.174079 -0.324326 -0.921130 0.215248
-0.165863 -0.360691 1.483917 -0.017988 -0.056801 -0.998223
-0.133545 2.529317 -0.727116 -0.343733 -0.561391 -0.752787
-0.065903 2.334318 -0.314732 -0.320706 0.833172 0.450524
0.005120 -0.835898 1.970376 -0.426626 -0.372104 0.824336
0.043547 -1.113050 1.770165 -0.385505 -0.639327 0.665318
0.031065 -0.347587 0.774181 -0.282890 -0.956474 0.071626
-0.181324 -0.339452 2.018003 -0.413284 -0.072870 0.907682
-0.007044 -0.396224 1.369105 -0.292719 -0.942629 0.160519
0.073107 -0.158107 1.986534 -0.543441 -0.035058 0.838715
-0.072981 -0.085272 1.879029 -0.128009 -0.345281 0.929728
0.106127 -0.405987 2.039661 -0.411394 -0.058121 0.909603
-0.020984 -0.433072 1.543888 -0.055890 0.256509 -0.964925
0.036518 -0.113277 1.557954 -0.261398 -0.963258 0.061686
-0.201760 -0.281538 1.768118 -0.024627 -0.131924 -0.990954
0.083340 -0.014932 1.979820 -0.156783 0.120002 0.980315
-0.112537 -0.154370 1.779110 -0.626850 -0.231443 -0.743972
-0.018960 -0.284790 1.917208 -0.149711 -0.269376 0.951327
-0.174464 -0.339995 1.693864 -0.043926 -0.171533 -0.984199
-0.205911 -0.100374 1.685513 -0.218003 -0.947506 -0.233896
-0.160876 -0.424570 1.598302 -0.068157 -0.099990 -0.992651
-0.201309 -1.058702 1.814109 -0.983587 -0.124814 0.130299
-0.195372 -0.909048 1.883291 -0.997899 -0.059449 -0.025746
-0.079000 -1.043528 1.854734 -0.868543 -0.319519 0.378868
-0.085050 -0.977655 1.882038 -0.357632 -0.743419 0.565179
0.009563 0.246501 1.793506 -0.135390 0.982797 0.125621
-0.042854 -0.127977 1.637487 -0.136978 -0.482082 -0.865352
-0.132839 -0.307245 1.764446 -0.283257 -0.168263 -0.944168
-0.099527 0.049438 2.035209 -0.157326 -0.132763 0.978582
-0.235335 -0.932616 2.052102 -0.584832 -0.455806 0.670979
-0.150217 -0.188781 1.867578 -0.313140 0.093254 0.945117
-0.144161 -0.317028 2.017921 -0.234659 -0.010900 -0.972017
-0.226370 -0.160093 1.988457 -0.160398 0.016507 0.986914
-0.084562 -0.970159 1.895462 -0.918691 0.223198 0.325867
-0.145982 -0.993739 1.728835 -0.923261 0.350346 0.157625
-0.085055 -1.137612 1.761939 -0.813429 -0.214046 0.540849
-0.191071 -1.003864 1.886666 -0.842471 -0.246531 0.479026
0.022590 0.010550 1.874880 -0.127444 0.136337 0.982431
0.098961 -0.445147 0.772807 -0.253653 -0.967249 -0.009487
-0.032119 -0.571604 2.018437 -0.426192 -0.050448 0.903225
-0.210116 -0.008029 1.112472 -0.311965 0.946507 -0.082478
-0.136897 0.042907 1.101248 -0.318055 0.948014 0.010488
0.039711 -0.027765 1.988480 -0.503815 0.588383 0.632437
0.084908 -1.133670 1.754669 -0.886317 -0.459930 0.053923
-0.203002 -1.105625 2.030919 -0.872844 -0.445923 -0.198234
-0.141741 -1.048593 2.017450 -0.833179 -0.516758 0.196911
-0.212169 2.241138 -0.692993 -0.366475 -0.545614 -0.753659
-0.070956 -0.092313 1.808894 -0.287798 0.162132 0.943867
-0.114735 -1.034741 1.436552 -0.107800 0.179378 -0.977856
-0.023275 -0.084913 1.976300 -0.581737 -0.230857 0.779928
-0.024730 -0.306913 1.817072 -0.433141 -0.738521 -0.516697
-0.040174 -0.556601 1.643926 -0.064052 0.330875 -0.941498
-0.144184 -0.376623 0.379965 -0.244973 -0.962721 -0.114706
-0.115730 -0.847904 1.983922 -0.720495 -0.095670 0.686830
-0.158642 -0.165924 1.963529 -0.389306 -0.490150 -0.779868
-0.219016 -0.133571 1.396401 -0.307429 0.934340 -0.180267
-0.229964 0.083244 0.871284 -0.322554 0.942087 0.091818
-0.020281 -0.869308 1.922255 -0.771938 -0.449862 0.449149
-0.016735 -0.042795 2.019978 -0.859785 -0.484356 -0.161770
0.060859 2.265696 -0.456890 -0.357092 0.827327 0.433608
-0.178125 -0.302974 1.915033 -0.793929 -0.404644 0.453806
-0.133402 -1.058777 1.767761 -0.302218 0.622901 0.721567
-0.198630 -1.174147 1.822782 -0.231015 0.888051 0.397490
0.050287 -0.865541 2.011924 -0.645730 -0.051224 0.761846
-0.147587 2.471938 -0.669972 -0.412381 0.873759 0.257850
-0.106034 -0.437581 0.531504 -0.237238 -0.945053 -0.224928
-0.049675 -0.797974 1.621713 -0.078001 0.307389 -0.948382
-0.209094 -0.445189 1.944914 -0.610721 -0.010956 0.791770
0.041380 -1.142645 2.004960 -0.330564 0.100829 0.938382
-0.016256 -0.210976 1.340134 -0.303194 0.918554 -0.253638
-0.120084 -0.987051 1.969136 -0.511556 -0.803108 0.305496
0.024819 -0.332898 1.849103 -0.322380 0.045643 -0.945509
0.023496 -1.117309 1.861492 -0.423318 -0.905712 -0.022079
-0.072712 -0.923520 1.903215 -0.266716 -0.880363 -0.392203
-0.233135 -0.973294 1.741053 -0.419973 -0.900053 0.116305
0.061996 -0.804833 1.802154 -0.569432 -0.672478 0.472779
-0.009327 -0.297915 1.763933 -0.420240 -0.014845 0.907292
-0.201735 -0.450680 1.755217 -0.768693 0.009873 0.639541
-0.258132 -0.223628 2.106201 -0.691792 -0.317645 -0.648480
-0.223831 -0.100909 0.930938 -0.326223 0.930953 0.164031
-0.016881 -0.133609 1.773165 -0.286428 -0.140209 -0.947787
0.056437 -1.084533 2.053188 -0.548170 -0.424421 0.720678
-0.203832 -1.127521 1.820524 0.168682 0.737844 0.653554
-0.110286 0.001586 2.103047 -0.637020 0.538741 0.551329
-0.162110 -0.048930 2.011634 -0.292126 -0.059343 0.954537
-0.221860 -0.085256 1.872557 -0.228132 0.137762 0.963835
-0.215124 2.607309 -0.768302 -0.463060 -0.321692 -0.825888
-0.093077 -0.889067 1.854114 -0.390488 -0.381572 0.837808
-0.263017 -1.008627 1.641058 -0.506103 -0.855158 0.112090
-0.098349 2.156792 -0.722787 -0.383316 -0.499804 -0.776701
-0.111188 0.015855 1.450054 -0.308058 0.896884 -0.317331
0.025790 -0.615148 1.921797 -0.429148 0.004938 0.903221
-0.073856 2.486434 -0.784962 -0.423242 0.818102 0.389326
-0.044835 -1.062211 2.000267 -0.487488 -0.726166 0.484807
0.026488 -0.806373 1.557949 -0.194786 -0.212177 -0.957622
-0.182076 -0.089989 1.929757 -0.445309 -0.888402 0.111548
-0.171806 2.183498 -0.114577 -0.377100 0.823327 0.424179
0.018257 -0.020075 1.606992 -0.202859 0.672989 -0.711290
-0.209439 -0.946161 1.692321 0.153039 0.223874 0.962528
0.071360 0.012343 2.057322 -0.741956 -0.644629 0.184269
-0.177236 -0.963278 1.897906 -0.009475 0.275349 0.961298
-0.233270 -1.136306 1.810936 0.496551 0.589333 0.637279
-0.109351 -1.092676 1.860609 0.614390 0.720583 0.321379
-0.170583 -1.138112 2.015423 0.054601 0.123615 0.990827
-0.123944 0.043056 1.998167 -0.429751 0.264388 0.863373
-0.265163 -1.115984 1.910367 -0.132053 -0.832303 0.538362
-0.096720 -0.053432 0.741526 -0.328816 0.915157 0.233170
0.050180 -0.258242 1.953413 -0.534653 -0.251590 0.806752
-0.270141 -0.902287 1.509404 -0.310314 -0.866230 -0.391600
0.026292 -0.765452 1.798663 -0.559950 -0.212223 0.800885
-0.003563 -0.351220 0.082164 -0.226587 -0.911269 -0.343870
-0.055224 -0.349032 1.828065 -0.621076 -0.019761 0.783501
-0.269743 -0.845057 1.903170 0.377749 -0.921726 -0.087903
-0.261213 -1.043087 1.953864 0.512554 -0.783886 -0.350443
-0.183930 -0.973290 1.951551 0.092673 -0.925338 0.367643
0.029085 -0.938334 2.059980 -0.572841 -0.037401 0.818813
-0.120565 -0.929748 1.637963 0.062123 0.395537 0.916347
-0.002239 0.136539 0.669418 -0.318317 0.898165 0.303273
-0.144431 -0.192957 1.776967 -0.453618 -0.403280 -0.794730
-0.024716 0.140011 1.425844 -0.303534 0.856109 -0.418263
-0.192374 -0.047066 0.666805 -0.297729 0.855007 0.424642
-0.175643 -0.114162 1.753803 -0.732892 -0.656015 -0.180315
-0.008995 -0.094997 1.502036 -0.217800 0.590025 -0.777453
-0.240301 -0.036611 1.902801 -0.368267 -0.060999 -0.927717
-0.136926 -0.036827 2.041134 -0.669251 -0.487978 -0.560339
-0.179343 -0.092245 1.948137 -0.327287 0.015488 -0.944798
-0.041824 2.511484 -0.775542 -0.599170 0.799935 -0.033153
-0.103031 0.203848 1.688816 -0.163016 0.834322 -0.526623
-0.223403 0.050767 1.765601 -0.578172 0.604889 0.547564
-0.197853 2.379395 -0.750763 -0.464953 0.775745 0.426659
-0.130123 -1.118470 1.504079 -0.401126 -0.719159 -0.567370
-0.001209 -0.296808 1.996414 -0.181752 0.020691 0.983127
-0.105572 -0.342405 1.883662 -0.826045 0.085002 0.557157
0.029985 -0.834315 1.681803 0.483641 0.053559 0.873626
-0.190026 -0.256942 1.980365 -0.391312 0.030306 0.919759
-0.200902 2.565523 -0.580635 -0.544370 -0.424337 -0.723602
-0.091902 0.169728 0.651492 -0.263581 0.648328 0.714280
-0.253282 -0.930316 1.781186 0.350260 -0.730463 0.586296
-0.132424 -1.087138 1.974306 -0.195607 -0.399188 0.895761
0.006822 -0.175990 1.717697 -0.374367 -0.647271 0.663996
0.048249 2.621776 -0.846726 -0.634793 -0.003492 -0.772674
0.055528 2.013997 -0.540123 -0.416210 -0.445160 -0.792844
-0.093038 -0.700219 1.771091 -0.456954 0.084492 0.885468
-0.277740 -0.923684 1.743523 0.490376 -0.380960 0.783838
-0.157470 -0.847973 1.852723 -0.600659 -0.241938 0.762020
-0.218547 2.097071 -0.094315 -0.364499 0.821332 0.438811
-0.103351 -0.400956 1.226489 -0.737156 -0.666446 0.111584
-0.049076 -0.074991 1.884733 -0.552895 -0.498651 -0.667574
-0.277910 -0.880712 1.957882 0.824094 0.407936 0.393010
-0.058704 -0.967396 1.737257 0.874054 0.443819 0.197621
-0.180253 -1.033524 1.872610 0.248503 0.060409 0.966746
-0.265024 -0.247210 1.816535 -0.630975 -0.510354 0.584302
-0.191608 -1.234053 1.806722 -0.286222 -0.826036 -0.485533
-0.099566 -0.863568 1.927451 0.829435 -0.557663 0.032389
-0.117361 -1.019697 1.958414 0.865205 -0.457568 -0.205066
0.004946 -0.971868 1.986172 0.330863 -0.638192 0.695155
-0.140489 0.060612 1.691665 -0.280468 0.762266 -0.583342
-0.178107 0.110935 1.773852 -0.162828 0.984103 0.070907
-0.044965 -0.377478 2.073613 -0.344137 -0.511611 0.787289
-0.257646 -0.231697 1.103473 -0.707925 -0.694498 0.128511
0.014382 -0.371241 1.880666 -0.815262 -0.173237 0.552572
-0.168932 -0.620696 1.872518 -0.525488 0.105707 0.844209
-0.277914 -0.332891 1.938326 -0.609905 -0.425829 0.668345
-0.150058 0.178583 1.723731 -0.210019 0.652625 -0.727992
-0.032379 -0.939445 2.006255 0.958198 -0.101142 0.267630
-0.074034 -0.857331 1.977216 0.999834 0.017066 0.006412
-0.229501 -0.920588 1.948453 0.352069 -0.186292 0.917248
0.015119 -0.374951 1.176598 -0.741855 -0.659947 0.118831
-0.013201 -0.002704 0.644139 -0.187280 0.320851 0.928429
-0.086240 2.391048 -0.814965 -0.779109 0.438877 -0.447634
0.013477 -0.875708 2.005069 -0.626324 -0.534774 0.567217
0.002509 0.257539 1.656702 -0.109619 0.960503 -0.255768
-0.012983 -0.159026 -0.061780 -0.257209 -0.838023 -0.481207
-0.207102 -0.503039 1.942254 -0.603843 -0.000392 0.797103
-0.060305 -0.394985 1.800021 -0.674670 -0.715450 -0.181526
-0.266191 0.004972 1.934631 -0.465118 -0.884954 -0.022836
0.028345 -0.236979 1.974545 -0.535516 -0.504375 -0.677369
-0.185969 -0.227558 1.814873 -0.521043 -0.146890 -0.840796
-0.105162 -0.188187 1.368484 -0.732450 -0.669877 0.121581
-0.079442 -1.282721 1.970142 -0.313068 -0.783509 0.536751
-0.230131 -0.022698 1.841257 -0.679974 0.364274 0.636348
-0.000256 0.008704 1.763295 -0.544735 0.722541 0.425674
-0.157547 -0.173680 1.711784 -0.227075 -0.516568 0.825587
-0.162518 -0.437829 1.552960 -0.028867 0.048204 -0.998420
-0.121125 -0.000177 1.977791 -0.268193 0.020251 -0.963152
-0.275371 -0.256522 2.035442 -0.228406 -0.002694 0.973562
-0.134116 1.827554 -0.488786 -0.450543 -0.360177 -0.816874
-0.203253 2.075945 0.240944 -0.342819 0.801695 0.489652
-0.197646 -1.185632 1.731996 -0.240879 -0.681859 -0.690685
-0.137597 -0.207441 1.830256 -0.896353 0.074847 0.436977
-0.037068 -0.163781 1.753134 -0.673381 -0.170124 0.719455
-0.149184 -0.396254 1.323012 -0.709227 -0.701076 0.074092
-0.214746 -0.831959 1.855097 -0.708912 -0.303985 0.636425
-0.163399 -0.194423 1.942954 -0.426476 -0.323187 0.844789
0.050063 0.035214 0.501653 -0.134662 0.093920 0.986431
0.003671 2.450130 -0.569179 -0.578654 -0.465424 -0.669731
-0.181906 -0.908697 1.838375 -0.680295 -0.189047 0.708138
0.022539 -0.253653 1.647960 -0.015376 -0.073984 -0.997141
0.048857 -0.229951 1.944829 -0.822681 0.082711 0.562454
-0.098728 0.306242 -0.504436 -0.321376 -0.337475 -0.884776
-0.287459 -1.042602 1.818845 -0.644008 -0.750226 0.149716
-0.072015 -0.170044 2.147697 -0.408898 0.233028 0.882327
-0.006052 -0.238532 1.801537 -0.771337 -0.238567 -0.590021
0.039537 -1.138337 1.851777 -0.652073 -0.715086 0.251897
-0.288402 0.020394 0.034582 -0.341864 -0.727957 -0.594313
-0.069307 0.067063 -0.343870 -0.335191 -0.470762 -0.816107
-0.134429 -1.237211 1.767407 -0.354547 -0.934762 0.022727
-0.079990 -0.342277 1.005517 -0.646921 -0.753861 0.114835
-0.267463 2.267237 -0.404105 -0.527780 0.748507 0.401479
-0.217724 2.414052 -0.759116 -0.677050 0.695192 0.241477
-0.184444 -0.111492 1.754357 -0.175043 -0.964634 0.197084
-0.028294 -0.173420 1.556213 -0.665712 -0.744941 -0.043487
-0.178697 0.143265 1.868219 -0.876314 0.335470 0.345737
-0.130573 -0.383102 1.821662 -0.773725 -0.411053 0.482063
0.009078 -0.007599 1.831784 -0.477434 -0.249710 0.842438
-0.076068 -1.302474 1.877390 -0.303122 -0.795039 -0.525385
-0.276049 -0.401988 1.943535 -0.756917 -0.249916 0.603837
-0.095110 -0.264073 2.001455 -0.273978 -0.393249 0.877663
-0.140586 -0.144956 1.781533 -0.858785 -0.426121 0.284444
0.047787 0.145486 -0.161891 -0.376490 -0.614082 -0.693655
-0.252594 -0.907449 1.864342 -0.590858 -0.490086 0.640861
-0.059656 -0.098425 2.097976 -0.620716 -0.039274 -0.783051
-0.010601 -0.718022 1.563471 -0.059487 0.218475 -0.974028
-0.168723 -0.015742 2.038234 -0.476016 -0.162811 0.864235
-0.086850 -0.437169 1.978429 -0.849880 -0.069152 0.522419
-0.297690 -0.825066 1.837672 -0.687605 -0.158707 0.708528
-0.197858 1.832435 -0.189517 -0.477363 -0.239422 -0.845459
-0.036886 1.416020 -0.453639 -0.302082 0.323129 -0.896847
-0.066679 -0.117220 1.704451 -0.388543 -0.481998 0.785310
0.044842 -0.047034 1.887232 -0.510230 -0.055543 0.858242
-0.129961 0.422812 0.448260 -0.120128 -0.090812 0.988596
0.044235 -0.265379 1.756645 -0.361627 -0.890820 0.275072
-0.239145 2.033352 0.281628 -0.325924 0.725655 0.605969
-0.019049 0.049247 1.837662 -0.411765 0.162670 0.896654
-0.227498 2.534332 -0.550228 -0.809371 -0.158168 -0.565599
-0.044187 0.004967 2.045526 -0.814963 0.278724 0.508083
-0.302582 -0.032294 1.949828 -0.709094 -0.536744 -0.457265
-0.217563 1.263780 -0.270303 -0.267928 0.354735 -0.895755
-0.155406 -0.262025 1.456022 -0.024938 -0.105581 -0.994098
-0.020171 1.517832 -0.251604 -0.376584 0.237030 -0.895545
-0.011386 -0.156215 1.128831 -0.698445 0.712219 -0.070133
-0.257594 -0.129256 1.009252 -0.696292 0.717547 0.017410
-0.197837 -0.334030 1.903983 -0.784077 -0.185632 0.592253
0.035698 -0.468613 1.941357 -0.179756 -0.249086 0.951653
-0.063817 0.793148 -0.421277 -0.281102 -0.192684 -0.940135
-0.028453 -0.898680 1.651186 -0.176784 0.108826 -0.978215
-0.103857 -0.131997 1.707683 -0.527394 -0.145873 0.837005
-0.028774 -0.148833 1.196082 -0.940467 -0.331803 0.073680
-0.086283 -0.533918 1.997743 -0.585866 0.038754 0.809481
0.014863 1.740882 -0.177491 -0.467111 -0.023144 -0.883896
-0.071609 -0.188135 1.108363 -0.952323 -0.302140 0.042344
-0.001559 -0.164187 1.805453 -0.902175 -0.095470 -0.420673
0.015629 -0.496976 1.663167 -0.904439 0.142325 0.402161
-0.242943 -0.135605 1.556465 -0.049059 -0.091170 -0.994626
0.006127 -0.085971 1.825039 -0.942098 -0.232658 0.241499
-0.072664 0.005647 1.233642 -0.702697 0.693462 -0.159149
-0.068474 -0.194768 1.982305 -0.574228 -0.459654 0.677481
-0.080014 -0.396510 1.480092 -0.058422 -0.037173 -0.997600
-0.111515 0.005827 2.023671 -0.777021 -0.604563 0.175336
-0.003615 -0.164550 1.904251 -0.735720 -0.254954 0.627467
-0.073131 -0.116279 1.265948 -0.954976 -0.295791 0.022999
-0.096078 -0.288703 2.083773 -0.854886 -0.019652 -0.518443
-0.016469 -0.398998 1.533532 -0.128413 -0.237856 -0.962774
0.018834 1.404278 -0.564990 -0.287090 0.272818 -0.918232
-0.255757 2.458777 -0.643033 -0.927090 0.333066 -0.171965
-0.298911 -0.145251 1.998471 -0.975450 -0.108107 -0.191861
-0.138123 -0.409369 0.795927 -0.590175 -0.806537 0.034520
-0.092956 2.316424 -0.747723 -0.703108 0.643435 0.302706
0.035678 0.000295 0.866025 -0.698745 0.708336 0.100071
-0.201899 2.414284 -0.436313 -0.583876 -0.449470 -0.676067
-0.147166 -0.193198 1.981538 -0.964580 -0.240305 0.108811
-0.021897 -0.112598 1.012948 -0.916730 -0.376379 0.133957
-0.171003 -1.015370 1.594989 -0.436820 -0.391520 -0.809876
-0.146023 -0.618958 1.924171 -0.775525 0.088236 0.625121
-0.170924 -0.296319 1.956903 -0.948215 -0.041858 -0.314859
-0.003820 -0.351391 1.246879 -0.946810 -0.321295 -0.017900
-0.000446 -0.431681 1.929836 -0.172781 -0.457171 0.872434
-0.240191 -0.162820 2.128242 -0.955876 -0.102087 -0.275461
-0.132075 -0.088914 1.857541 -0.893555 0.023999 -0.448312
-0.068986 -0.095381 1.650431 -0.503856 -0.686081 -0.524807
-0.026062 -0.099495 1.867909 -0.929539 -0.181363 0.321036
-0.261977 -0.079063 2.097159 -0.987251 -0.159170 -0.000301
-0.139042 0.157016 2.023075 -0.584982 0.660063 0.471289
-0.132274 0.104024 1.856797 -0.891614 -0.342260 0.296450
-0.162968 -0.162045 1.987321 -0.798122 0.301444 0.521664
-0.102924 -0.206560 1.748582 -0.476321 -0.506247 0.718910
-0.128522 0.164875 1.789323 -0.760580 0.237521 0.604236
-0.299957 -0.570065 1.600061 -0.092348 0.315432 -0.944444
-0.114689 -0.534003 1.837670 -0.654068 -0.000879 0.756435
-0.292386 -0.069462 1.115911 -0.990944 -0.132204 0.023510
-0.123439 0.321182 0.390143 -0.139572 -0.201147 0.969567
-0.125354 -0.961734 1.977821 -0.785657 -0.386260 0.483265
-0.008184 -0.169359 1.311297 -0.713060 0.663728 -0.225856
-0.302097 1.192398 -0.530326 -0.298495 0.144172 -0.943459
-0.133835 1.950436 0.489016 -0.319632 0.603469 0.730521
-0.280744 0.056661 2.123085 -0.950306 -0.310231 0.025988
0.018689 0.901402 -0.629443 -0.280219 -0.022394 -0.959675
-0.020059 0.077571 1.837605 -0.881172 -0.300747 -0.364810
-0.081484 -0.000162 1.917844 -0.817600 -0.086112 -0.569311
-0.199535 -0.089769 1.345045 -0.987376 -0.157758 -0.014192
-0.294935 -0.214368 2.102721 -0.950819 -0.029081 -0.308379
-0.148059 -0.135216 1.852384 -0.918220 -0.146064 0.368154
-0.239796 -0.223839 1.782682 -0.647658 -0.186419 0.738774
0.010756 0.039034 1.834546 -0.949263 0.214146 0.230307
-0.087210 -0.079376 1.298126 -0.988052 -0.137522 0.069575
-0.185212 -0.124212 2.105368 -0.917717 -0.376795 -0.125782
-0.241676 0.119841 1.893953 -0.742325 -0.504935 -0.440448
-0.176685 -0.140049 1.643632 0.024665 -0.228173 0.973308
-0.004616 -0.800989 1.936758 -0.754985 -0.203082 0.623502
-0.153712 0.010702 1.074162 -0.982370 0.186193 -0.016796
-0.242219 -0.016802 2.085315 -0.924880 -0.155078 -0.347200
-0.231611 0.000387 1.858420 -0.739307 -0.362288 -0.567602
-0.087550 -0.218586 1.944677 -0.942299 -0.141060 0.303604
-0.026135 -0.982562 1.767383 0.042386 0.269303 0.962122
-0.046105 -0.295947 1.515396 -0.930847 -0.344214 -0.122641
