854
0.412569 0.549436 -2.015361 -0.153755 -0.759768 -0.631753
0.439157 0.929210 -0.314596 -0.825759 0.167981 -0.538428
0.370968 0.755493 0.477188 0.579834 -0.327270 0.746115
0.366611 0.710449 -0.415291 -0.936275 -0.084112 -0.341049
0.369898 1.424255 0.474652 0.767155 0.451712 0.455445
0.363106 0.529054 -0.312632 -0.604520 -0.706016 -0.368914
0.450840 0.050179 0.450845 0.662812 0.063182 0.746115
0.447021 0.394690 0.161821 0.891821 -0.373890 -0.254679
0.439270 -0.107017 0.133199 0.472151 -0.832091 -0.291029
0.336670 0.693306 -2.004051 -0.606073 0.271111 -0.747779
0.367686 0.520959 0.080315 0.551711 -0.808438 -0.205043
0.371989 1.110224 -0.287852 -0.085520 0.432371 -0.897631
0.350246 -0.013153 0.019544 -0.656980 -0.612831 -0.439108
0.438699 0.747608 -0.373037 -0.833730 -0.101250 -0.542810
0.356825 0.499905 0.403273 0.721929 -0.256820 0.642543
0.402010 0.679929 -1.896487 -0.923602 0.367861 0.107882
0.372439 0.684627 -1.868246 -0.610174 0.118509 0.783354
0.427380 0.096211 0.035487 -0.725593 0.212759 -0.654407
0.359237 0.307200 0.189059 0.853805 0.379387 -0.356487
0.417099 0.914881 -0.318671 -0.327802 0.150151 -0.932738
0.341159 1.594591 0.049790 0.936803 0.228923 -0.264563
0.321172 1.597746 0.360166 0.837559 0.438116 0.326418
0.333847 0.520193 -1.909739 -0.500595 -0.662758 0.556917
0.361601 0.155992 0.097864 -0.007637 0.698632 -0.715441
0.400139 1.696346 0.162478 0.955205 0.292222 -0.046794
0.379323 0.517829 -1.878728 -0.579271 -0.589215 0.563267
0.369531 0.539972 -1.953816 -0.633143 -0.126800 0.763578
0.382240 0.682393 -1.970788 -0.617181 0.215464 -0.756745
0.339538 0.379081 0.044709 0.936978 -0.203981 -0.283662
0.354188 0.332478 0.466420 0.749765 -0.115172 0.651605
0.378889 0.556645 -0.182553 -0.200501 -0.764443 -0.612720
0.338171 1.388101 -0.203726 0.758026 0.413608 -0.504307
0.336052 0.755585 -0.275930 -0.479191 -0.204819 -0.853478
0.372439 -0.130911 0.374119 0.716551 -0.403237 0.569170
0.335069 0.629884 -1.953746 -0.942565 0.309588 0.125405
0.338710 0.600288 -2.010790 -0.710536 -0.676970 -0.191965
0.312995 1.199626 -0.313820 0.605289 0.226925 -0.762975
0.374711 -0.053690 0.066273 -0.131829 -0.729712 -0.670926
0.376591 -0.129120 0.225573 0.534706 -0.826357 -0.176704
0.335464 0.600736 -2.024033 -0.679577 0.042312 -0.732383
0.292355 0.500703 -2.012097 -0.817330 -0.506913 0.273881
0.360870 0.550644 -1.993781 -0.672570 -0.472459 -0.569589
0.329412 0.218614 0.435776 0.619533 -0.021491 0.784677
0.385244 0.949254 -0.293283 0.540809 -0.006235 -0.841122
0.363831 1.637541 -0.060787 0.948592 0.179990 -0.260340
0.317767 0.622804 -1.956668 -0.856925 -0.489687 0.160894
0.318916 0.094184 0.039422 -0.172911 0.081699 -0.981543
0.291184 1.724869 0.353383 0.867867 0.422232 0.261776
0.350868 1.494144 -0.136066 0.901995 0.257458 -0.346584
0.293877 0.624890 -1.986929 -0.985693 0.053834 0.159725
0.368406 1.858260 0.054605 0.963077 0.265242 -0.046153
0.266507 0.163713 0.019809 0.621191 0.277341 -0.732942
0.267504 0.263859 -0.017763 0.951756 -0.060740 -0.300785
0.345941 0.776388 -0.334363 0.464094 -0.328484 -0.822627
0.257271 -0.075031 0.033186 0.306057 -0.673734 -0.672616
0.354209 0.086231 0.481523 0.478438 -0.013577 0.878016
0.338719 1.527088 -0.128951 0.921883 0.187496 -0.339082
0.258926 1.094353 -0.364779 0.846164 0.137421 -0.514900
0.297897 0.462918 -0.209785 0.737807 -0.519456 -0.431051
0.312062 0.866955 -0.384041 0.874113 -0.033426 -0.484570
0.314224 1.778748 -0.016120 0.955901 0.122871 -0.266752
0.262361 1.300697 -0.264608 0.847510 0.229214 -0.478735
0.253721 1.855161 0.263194 0.858212 0.461734 0.224218
0.292181 0.073688 0.045760 0.471871 -0.190024 -0.860946
0.288982 0.888407 0.657412 0.338466 -0.185947 0.922423
0.246772 1.252270 0.605252 0.451227 0.163733 0.877260
0.267474 1.170990 0.659696 0.380798 -0.023086 0.924370
0.247919 -0.140353 0.331293 0.595749 -0.802001 -0.043334
0.237118 1.952510 -0.073344 0.968665 0.245974 -0.034418
0.273371 1.631655 -0.207443 0.923884 0.164612 -0.345459
0.313646 0.732945 0.564567 0.357662 -0.276248 0.892057
0.303027 1.441121 0.633720 0.543573 0.366524 0.755108
0.337065 -0.188223 0.459460 0.812668 -0.394459 0.428921
0.282648 0.143478 -0.085634 0.908581 -0.161227 -0.385339
0.297446 1.475941 -0.273277 0.858589 0.243509 -0.451142
0.263055 -0.038912 0.513998 0.556754 0.001539 0.830676
0.250021 0.707422 -0.351805 0.882600 -0.166774 -0.439549
0.331193 -0.735787 1.788152 0.994591 -0.006434 -0.103666
0.237517 -0.776289 1.815309 0.931771 0.026206 0.362099
0.277051 1.864109 -0.098228 0.958313 0.026906 -0.284451
0.331412 -0.746706 1.743114 0.925017 -0.043169 -0.377465
0.320822 0.498261 0.506748 0.418490 -0.238863 0.876248
0.290031 0.364507 -0.178636 0.944153 -0.179022 -0.276634
0.228394 1.613167 0.584261 0.618883 0.469121 0.630008
0.297137 -0.900808 1.758134 0.989163 -0.117021 -0.088668
0.284968 -0.713805 1.745486 0.959318 0.210432 0.188222
0.303933 -0.037391 0.090724 0.518187 -0.674126 -0.526343
0.298143 -0.857159 1.732888 0.900265 -0.053792 -0.432006
0.213439 -0.846198 1.707761 0.867492 -0.106443 -0.485930
0.267761 1.482154 -0.200205 0.846620 0.223536 -0.482976
0.252480 -0.614565 1.795727 0.974106 0.157801 -0.161916
0.312759 -0.850138 1.808091 0.900298 -0.102290 0.423083
0.228951 -0.757055 1.752992 0.925895 0.057338 -0.373404
0.218425 2.010099 0.120713 0.840459 0.505109 0.196196
0.250289 2.073193 -0.135674 0.972750 0.230669 -0.023437
0.282381 1.587861 -0.288865 0.860315 0.184831 -0.475074
0.290368 -0.943419 1.780950 0.851614 -0.146569 -0.503260
0.286479 -0.820113 1.681797 0.937238 -0.017278 -0.348263
0.287429 -0.716273 1.843572 0.609622 -0.001342 0.792691
0.235348 0.388131 0.511768 0.398708 -0.164847 0.902140
0.276771 0.062285 0.000092 0.754545 -0.365261 -0.545203
0.209579 0.459738 -0.317289 0.901850 -0.194200 -0.385945
0.306541 -0.687727 1.733557 0.598387 0.079701 0.797233
0.250849 -0.012949 0.462560 0.723185 0.113325 0.681294
0.262654 -1.045964 1.732533 0.940313 -0.323043 0.107025
0.262759 -0.933410 1.692975 0.831276 -0.285927 -0.476683
0.238385 1.753003 0.460094 0.645453 0.532174 0.547889
0.201964 -0.833879 1.771148 0.600963 -0.059049 0.797092
0.221521 -0.871406 1.708803 0.933912 -0.127544 -0.333976
0.221325 -0.136249 0.461458 0.919010 -0.259663 0.296642
0.248719 2.039265 -0.288964 0.946069 -0.065155 -0.317346
0.212998 -0.166970 0.392578 0.686176 -0.727390 0.008094
0.228013 0.367097 -0.346534 0.899205 -0.201717 -0.388254
0.208349 1.140719 -0.456786 0.642933 0.146498 -0.751782
0.243969 -0.963384 1.739901 0.793009 -0.258127 0.551822
0.263856 -1.005970 1.764437 0.735864 -0.284508 -0.614459
0.235993 0.891791 -0.473653 0.643962 -0.019739 -0.764803
0.295793 -0.540845 1.800391 0.958384 0.282628 0.040263
0.271072 1.725304 -0.188514 0.808763 0.136688 -0.572030
0.182497 -0.750736 1.815694 -0.158198 0.007268 0.987381
0.286273 -0.745454 1.653240 0.937908 0.028580 -0.345706
0.240649 -0.629698 1.723336 0.917622 0.138463 -0.372557
0.251466 2.083455 -0.066025 0.829045 0.521979 0.200554
0.261860 0.264446 0.502392 0.311204 -0.084356 0.946592
0.179019 1.304281 -0.393814 0.639377 0.245623 -0.728606
0.254251 2.174650 -0.256961 0.973115 0.229021 -0.024425
0.264652 -0.652528 1.753102 -0.150756 -0.023100 0.988301
0.188513 -0.616092 1.739191 0.683269 0.188329 0.705462
0.251797 -0.897491 1.855208 -0.187951 0.064336 0.980069
0.254022 -0.576788 1.736164 0.909581 0.254123 -0.328762
0.255928 -0.099515 0.586108 0.871652 0.265580 0.411934
0.267533 -0.865960 1.586042 0.941151 -0.136939 -0.309001
0.237997 -0.035918 1.674719 0.997331 0.064393 0.034421
0.281490 -1.018645 1.655333 0.870502 -0.316812 -0.376638
0.272958 0.165832 -0.160659 0.808923 -0.366803 -0.459455
0.173447 -0.817623 1.759163 -0.744894 0.019639 0.666893
0.254309 -0.989683 1.816765 0.527836 -0.139515 0.837809
0.224103 1.865641 0.354772 0.633603 0.629547 0.449687
0.185963 -0.242065 0.622032 0.965972 -0.182040 0.183737
0.167165 -0.008453 1.731598 0.996929 -0.077555 0.010813
0.278444 0.621684 -0.424337 0.670944 -0.193698 -0.715762
0.171485 1.418710 -0.377047 0.619811 0.310268 -0.720810
0.243610 2.133948 -0.389723 0.917607 -0.134641 -0.373991
0.268270 -0.070569 1.595850 0.988430 -0.015706 -0.150863
0.246228 0.036920 1.699684 0.972475 0.094737 -0.212876
0.258079 -0.655414 1.798630 -0.679489 -0.081467 0.729149
0.253570 0.048811 1.780697 0.972484 0.064918 0.223742
0.172041 -0.053537 1.803249 0.975529 -0.098996 0.196323
0.242501 1.583858 -0.332308 0.596358 0.286598 -0.749812
0.272476 -0.892495 1.742409 -0.786584 0.154446 0.597856
0.168740 0.037026 1.683033 0.931929 0.359687 -0.046195
0.254948 1.485610 -0.272897 0.618683 0.290412 -0.729995
0.190393 1.885382 -0.246896 0.795768 -0.114901 -0.594602
0.162338 -0.150807 1.641465 0.994182 -0.067008 -0.084332
0.219734 -0.153805 1.707524 0.990735 -0.129071 0.042240
0.248503 0.107249 0.459879 0.278118 0.044132 0.959533
0.218668 -0.558553 1.816962 -0.138965 -0.042600 0.989381
0.179805 -0.188830 0.497606 0.758204 -0.651145 0.033711
0.190249 -0.798156 1.709595 -0.182711 0.003059 0.983162
0.223496 -0.176738 1.701435 0.998184 -0.060229 -0.000767
0.232962 -0.439005 1.718390 0.977310 0.207418 0.042937
0.223200 -0.107917 0.651998 0.927607 0.284319 0.242299
0.190022 -0.150994 1.814214 0.961691 -0.160462 0.222268
0.255936 2.151683 -0.274417 0.812503 0.538488 0.223317
0.265151 -0.813705 1.568922 0.819827 0.101747 -0.563499
0.259271 -0.226731 1.647190 0.990244 -0.098050 0.099006
0.191110 -0.035031 1.552827 0.889636 0.054334 -0.453427
0.164454 -0.144532 1.636595 0.883675 -0.124773 -0.451165
0.177207 -0.149522 1.602965 0.854480 -0.116039 -0.506358
0.205162 -0.263780 1.629087 0.891288 -0.130105 -0.434371
0.256052 -0.193824 1.732586 0.987645 -0.115173 0.106270
0.180910 -0.236980 1.660902 0.990588 -0.098990 0.094529
0.222390 -0.915554 1.791772 -0.257326 0.076157 0.963319
0.217109 -0.128894 0.059190 0.469468 -0.794332 -0.385534
0.198822 2.266734 -0.461783 0.968606 0.245596 -0.038531
0.244792 -0.726685 1.727614 -0.013512 -0.005117 0.999896
0.161046 0.049523 1.707517 0.796170 0.451776 -0.402506
0.201867 -0.188253 1.810899 0.969892 -0.141194 0.198429
0.185393 0.030778 1.756212 0.936429 0.283509 0.206695
0.170147 -1.013870 1.784621 -0.235030 0.156549 0.959298
0.241570 0.438043 -0.379912 0.715041 -0.270682 -0.644552
0.245244 -0.240593 1.626202 0.885212 -0.135042 -0.445155
0.234193 -0.925338 1.570364 0.853796 -0.399719 -0.333551
0.238871 -0.602803 1.583086 0.771780 0.254797 -0.582609
0.255116 -0.011795 -0.022010 0.581893 -0.608827 -0.539194
0.239548 -0.311414 1.690448 0.994095 -0.101288 0.038925
0.230643 -0.224172 1.728225 0.996522 -0.057354 0.060444
0.219176 -0.461551 1.778234 0.715055 0.178377 0.675927
0.148614 -1.030178 1.766816 0.638353 -0.586256 -0.498808
0.190619 -1.036965 1.813344 0.726365 -0.678930 0.106997
0.163648 -0.746861 1.808411 0.796350 -0.035519 0.603792
0.178615 -0.347971 1.694755 0.998884 -0.023091 0.041192
0.222308 -0.874222 1.539040 0.815553 -0.157988 -0.556699
0.246283 -0.237815 1.573431 0.839197 -0.108430 -0.532909
0.151450 0.272812 -0.285627 0.662501 -0.383251 -0.643592
0.157590 2.001376 0.154724 0.618630 0.694121 0.368094
0.206672 -0.177325 0.752650 0.967917 -0.168899 0.186036
0.246828 -0.323926 1.614878 0.883272 -0.119633 -0.453341
0.142946 -0.523600 1.731053 0.945821 0.106634 -0.306679
0.198836 -0.121453 1.857249 0.879460 -0.160892 0.447955
0.192741 -0.527948 1.784029 -0.582258 -0.154165 0.798253
0.238901 0.002784 1.869015 0.874373 0.016329 0.484979
0.214572 -0.391817 1.719570 0.947226 0.076881 0.311210
0.174247 0.104596 0.544576 0.351800 0.197189 0.915070
0.144469 -0.437081 1.696666 0.987296 -0.022138 -0.157340
0.152075 1.923855 -0.298428 0.751894 -0.252282 -0.609106
0.247404 -0.172158 1.794759 0.837535 -0.239068 0.491306
0.238677 -1.100828 1.734219 0.512368 -0.516073 -0.686402
0.185640 -0.647214 1.805932 0.801159 0.091519 0.591412
0.140240 2.202441 -0.407437 0.877359 -0.187609 -0.441638
0.226847 -0.211614 1.821766 0.887289 -0.229238 0.400209
0.173381 -0.172083 0.810828 0.945171 0.250357 0.209696
0.209429 -0.080864 1.881846 0.760188 -0.252390 0.598676
0.217869 -0.254363 1.646568 0.876905 -0.162760 -0.452268
0.238982 -1.026983 1.759852 -0.671889 0.360014 0.647268
0.185201 -0.264474 0.622977 0.817002 -0.574535 0.049161
0.246392 -1.073703 1.842359 0.613587 -0.546977 0.569497
0.196460 -0.334632 1.786186 0.879049 0.010276 0.476620
0.211800 -0.016961 1.565673 0.751616 0.012184 -0.659489
0.190719 -0.048693 1.538741 0.659333 0.411308 -0.629369
0.137588 -0.188286 1.730931 0.903933 -0.114656 0.412017
0.167838 -0.551194 1.685335 0.698719 0.275292 -0.660308
0.169690 -0.260769 1.822438 0.902272 -0.075960 0.424424
0.196529 -0.298983 1.816609 0.935194 -0.071394 0.346866
0.152696 -0.092138 1.528717 0.687381 -0.199466 -0.698370
0.186874 2.326505 -0.383224 0.780734 0.571200 0.253347
0.230550 -0.427366 1.800833 -0.037305 -0.043861 0.998341
0.151425 -0.563409 1.793431 0.137424 -0.005162 0.990499
0.177470 -0.773305 1.780997 0.776652 0.012053 0.629815
0.180429 -0.167087 1.613083 0.640582 -0.200318 -0.741302
0.218114 0.095648 1.847995 0.833355 0.242196 0.496851
0.239524 -0.839876 1.793501 0.716013 -0.215039 0.664142
0.171621 0.062376 0.512935 0.522483 0.454157 0.721632
0.128583 -0.778954 1.573955 0.384939 0.255541 -0.886860
0.225294 -0.339803 1.790119 0.650790 0.082204 0.754794
0.226659 -0.350006 1.620254 0.784655 -0.092307 -0.613022
0.135230 2.070309 -0.051003 0.618607 0.708845 0.338915
0.145273 -0.169539 1.620674 0.459847 -0.287627 -0.840126
0.183411 -1.086190 1.702803 0.634837 -0.628970 -0.448753
0.177305 0.154585 1.665574 0.505529 0.831405 -0.230666
0.181820 -0.192923 1.822313 0.638327 -0.290562 0.712820
0.119294 -0.685059 1.748507 0.760758 0.075200 0.644664
0.205492 2.301200 -0.589793 0.961993 0.265171 -0.065220
0.168580 -0.265697 1.619165 0.356909 -0.094672 -0.929329
0.157810 -0.852180 1.832095 0.903830 -0.253312 0.344854
0.219868 -0.296708 0.671147 0.847375 -0.518330 0.115279
0.228651 -1.104460 1.840133 0.377576 -0.273959 0.884524
0.184093 -0.900297 1.516566 0.682247 -0.480427 -0.551116
0.176093 2.108429 -0.391442 0.687851 -0.344930 -0.638658
0.152095 -0.700158 1.539502 0.338494 0.330488 -0.881022
0.152163 0.112502 1.851165 0.673133 0.632252 0.383601
0.122450 -0.304345 1.574414 0.345854 -0.063251 -0.936154
0.164690 -0.579453 1.787951 0.843723 0.160552 0.512206
0.182813 -0.454181 1.639207 0.736598 0.123276 -0.665001
0.153226 -0.224064 1.611744 0.336553 -0.075505 -0.938632
0.170786 -0.209349 0.304171 0.487037 -0.844710 -0.221945
0.160470 -0.056845 1.585958 0.885498 0.019970 -0.464213
0.144836 0.011094 0.599358 0.633270 0.652751 0.415795
0.210812 -0.079938 0.922456 0.958278 0.221936 0.180133
0.118044 -0.238075 0.877930 0.966955 -0.166683 0.192910
0.197254 -0.488811 1.734183 -0.503588 -0.203766 0.839571
0.222049 -1.021771 1.724594 -0.214448 0.257594 0.942156
0.148531 -0.065882 1.600482 0.602873 0.460657 -0.651413
0.211224 0.142812 1.791323 0.657222 0.746524 0.103738
0.146927 -0.876395 1.482848 0.447637 0.010383 -0.894155
0.137119 0.146279 1.688964 0.447914 0.700937 -0.555033
0.135050 -0.346482 1.618450 0.335932 -0.142309 -0.931074
0.148974 -0.008760 1.623348 0.446921 0.548502 -0.706687
0.128769 -0.035512 1.857565 0.801700 0.005007 0.597706
0.172667 2.288707 -0.547095 0.842867 -0.211942 -0.494627
0.204751 -0.075952 0.675752 0.675770 0.681843 0.280044
0.158281 -0.268731 1.867958 0.658990 -0.221989 0.718647
0.164710 -0.111040 1.775844 0.622926 -0.262899 0.736782
0.188345 -0.100257 1.839134 0.728663 -0.339396 0.594862
0.188028 -0.323932 1.817855 0.580347 -0.054281 0.812558
0.109533 -0.164553 1.557239 0.856912 -0.241905 -0.455174
0.148901 -1.039257 1.614861 0.608489 -0.695405 -0.382300
0.206131 -0.211673 1.815448 0.683141 -0.133397 0.718000
0.165965 -0.154154 1.829768 0.580662 -0.350341 0.734910
0.148022 -0.258152 1.791249 0.715997 -0.156258 0.680391
0.216100 -1.011385 1.764963 -0.196345 0.345606 0.917608
0.191557 2.174108 -0.133950 0.611792 0.711165 0.346345
0.210958 -0.315523 1.816072 0.586771 -0.276077 0.761237
0.169885 -0.102873 1.446638 0.981049 0.076341 -0.178088
0.126703 -0.515775 1.776701 0.358599 -0.007694 0.933460
0.164480 -0.088801 0.771741 0.700169 0.677720 0.224631
0.181104 -0.372524 1.790977 -0.107699 -0.133520 0.985177
0.161085 -0.603637 1.595636 0.326029 0.251924 -0.911175
0.141495 0.077048 1.893265 0.766841 0.268829 0.582826
0.178370 2.368321 -0.474291 0.737869 0.611179 0.286374
0.186864 -0.085219 1.535664 0.676806 0.548652 -0.490830
0.133717 -0.538629 1.759848 0.772642 0.110935 0.625075
0.204425 -0.144306 1.543684 0.789466 -0.319681 -0.523973
0.095856 2.216551 -0.507619 0.619892 -0.409977 -0.669069
0.130396 -0.099534 1.010003 0.970733 0.214451 0.108112
0.126733 -0.433687 1.592569 0.320654 -0.106342 -0.941208
0.174730 -0.285415 0.829968 0.879532 -0.443932 0.171314
0.139033 -1.048238 1.751831 -0.372896 0.556941 0.742136
0.197069 -0.053767 1.437493 0.986315 0.126790 -0.105390
0.164689 -0.269282 0.395227 0.526847 -0.838534 -0.138899
0.141127 -0.133745 1.508070 0.966546 -0.229489 -0.114556
0.142167 -0.200486 1.002006 0.977857 -0.163708 0.130368
0.190389 0.772733 0.663526 0.160037 -0.250942 0.954681
0.132212 1.414035 0.680067 0.241373 0.304084 0.921560
0.170593 0.953341 0.644313 0.139761 -0.188685 0.972042
0.106152 1.311234 0.696184 0.195246 0.104418 0.975180
0.195408 1.144220 0.676604 0.158892 -0.060586 0.985435
0.104899 2.476885 -0.673515 0.956889 0.279906 -0.077570
0.126087 0.082023 1.588917 0.327112 0.636523 -0.698453
0.126885 -0.796293 1.812274 0.666264 0.050871 0.743979
0.193900 -0.453140 1.761309 0.879564 0.160223 0.447992
0.113742 -0.087165 1.360376 0.982852 0.174248 -0.060322
0.174259 1.607690 0.622620 0.298587 0.478209 0.825931
0.098614 0.616152 0.615739 0.166760 -0.245617 0.954916
0.160264 -0.259070 1.838683 0.650875 -0.254156 0.715379
0.127117 -0.098934 1.469601 0.716525 0.635737 -0.287108
0.196530 -0.158930 1.116436 0.977060 0.211295 0.026609
0.128231 -0.187445 1.833014 0.665143 -0.253448 0.702388
0.152438 -0.060431 0.899659 0.708012 0.685691 0.168960
0.133295 -0.076349 1.278956 0.979198 0.201747 -0.021660
0.087009 -0.939097 1.820629 0.791826 -0.606446 0.072358
0.114013 -0.373338 1.806720 -0.284875 -0.227611 0.931150
0.123582 -0.079128 1.437117 0.976074 -0.215469 -0.029211
0.179592 -0.499269 1.630580 0.296093 0.068111 -0.952728
0.126180 -1.004516 1.613946 0.553453 -0.661767 -0.505720
0.190761 -0.044149 1.944069 0.877141 -0.293920 0.379783
0.143938 -0.004068 1.907403 0.934544 -0.023411 0.355077
0.165218 -0.652264 1.792876 0.609941 0.063779 0.789876
0.128663 -0.083888 2.022693 0.981884 -0.137525 -0.130344
0.137556 -0.782475 1.482933 0.128912 0.291513 -0.947841
0.145557 2.360921 -0.656386 0.836430 -0.218646 -0.502572
0.141943 -0.860247 1.861402 0.727640 -0.049223 0.684191
0.138246 -0.045550 1.982536 0.879164 0.082645 0.469298
0.084875 -0.136620 1.126082 0.983797 -0.170700 0.054824
0.177949 -0.085658 1.957851 0.892261 -0.307775 -0.330372
0.173534 -0.185409 1.353267 0.980280 -0.197532 0.005614
0.085422 -0.027105 1.974992 0.943214 -0.254920 -0.212986
0.183469 -0.104034 1.962254 0.824738 -0.423395 0.374891
0.166491 -0.136036 1.290031 0.982900 -0.182693 0.023028
0.185596 2.257592 -0.345295 0.581713 0.725093 0.368579
0.083007 -0.034859 1.915225 0.983281 0.174601 0.051694
0.137833 -0.331102 0.583453 0.559216 -0.826647 -0.062711
0.147271 -0.212144 1.470103 0.922501 -0.368117 -0.116110
0.081682 -1.042379 1.839452 -0.044566 0.271228 0.961483
0.088155 -0.125237 2.037058 0.942291 -0.141060 0.303627
0.190835 -0.084193 1.956378 0.739306 -0.362288 -0.567604
0.114002 -0.107227 1.919568 0.924880 -0.155078 -0.347199
0.144177 -0.321568 1.827513 -0.024666 -0.228175 0.973308
0.095504 -0.079260 1.994464 0.742345 -0.504921 -0.440430
0.160516 -0.938417 1.897974 0.763202 -0.217499 0.608454
0.079044 0.004375 1.958495 0.917735 -0.376755 -0.125773
0.115578 -0.040284 1.968731 0.949264 0.214130 0.230319
0.131582 -0.249138 1.802643 0.647654 -0.186419 0.738778
0.189896 -0.111396 1.983223 0.918204 -0.146069 0.368191
0.137009 -0.083190 1.419841 0.700532 0.680203 -0.215821
0.148749 -0.087926 1.950834 0.950819 -0.029081 -0.308379
0.115060 -0.077427 1.980313 0.817600 -0.086112 -0.569311
0.188856 0.876267 -0.574719 0.280262 -0.022407 -0.959662
0.089062 -0.097676 1.915481 0.881179 -0.300755 -0.364789
0.105660 -0.006624 1.961793 0.950312 -0.310210 0.026021
0.158886 1.807431 0.491346 0.319610 0.603471 0.730528
0.127145 1.125301 -0.553244 0.298546 0.144167 -0.943444
0.172165 0.392003 0.500035 0.139562 -0.201146 0.969568
0.188435 -0.367909 1.788436 0.654072 -0.000878 0.756432
0.174978 -0.652862 1.602901 0.092336 0.315431 -0.944445
0.119773 0.082849 1.897985 0.760580 0.237538 0.604230
0.108467 -0.141505 1.841336 0.476319 -0.506245 0.718913
0.141196 -0.065401 1.929136 0.798100 0.301438 0.521701
0.166042 -0.025661 1.920583 0.891606 -0.342277 0.296455
0.143253 0.096745 1.844616 0.584960 0.660084 0.471287
0.172784 -0.924793 1.829304 0.790301 -0.409014 0.456215
0.182037 -0.078584 1.975645 0.987246 -0.159204 -0.000277
0.109084 -0.144128 1.941405 0.929524 -0.181370 0.321075
0.184047 -0.050166 1.976936 0.893555 0.023999 -0.448312
0.131746 -0.096976 1.945324 0.955876 -0.102087 -0.275461
0.156496 -0.189270 1.544062 0.501233 -0.690031 -0.522133
0.146243 -0.237584 1.856152 0.172784 -0.457169 0.872434
0.150850 -0.180650 1.365724 0.928585 -0.371092 -0.004538
0.113833 -0.150777 1.974917 0.948215 -0.041858 -0.314859
0.153283 -0.433854 1.864642 0.775525 0.088236 0.625121
0.134602 -0.919677 1.455863 0.436789 -0.391532 -0.809888
0.122738 -0.274371 0.967798 0.910088 -0.391890 0.134769
0.152163 -0.143419 1.053248 0.696629 0.711685 0.090621
0.153572 -0.095686 1.951710 0.964575 -0.240319 0.108817
0.091010 2.331235 -0.612313 0.583896 -0.449427 -0.676077
0.172933 2.430628 -0.590713 0.703088 0.643450 0.302720
0.096368 -0.047952 1.291187 0.680852 0.717300 -0.148055
0.086917 -0.309426 0.633461 0.590442 -0.806306 0.035355
0.072745 -0.147740 1.919365 0.975450 -0.108107 -0.191861
0.138987 2.424728 -0.690804 0.927080 0.333085 -0.171981
0.117082 1.270007 -0.429615 0.287139 0.272817 -0.918217
0.170774 -0.192273 1.571750 0.129051 -0.240096 -0.962133
0.131703 -0.239362 1.280903 0.929557 -0.366628 0.038839
0.108471 -0.111543 1.937820 0.854886 -0.019652 -0.518443
0.109465 -0.229453 1.893296 0.735722 -0.254957 0.627463
0.128451 -0.067709 1.969538 0.777021 -0.604563 0.175336
0.072820 -0.085614 1.189745 0.672442 0.736880 -0.069500
0.136049 -0.202058 1.632028 0.058413 -0.037170 -0.997600
0.078269 -0.241125 1.895645 0.574228 -0.459654 0.677481
0.086523 -0.218099 2.019173 0.942083 -0.232661 0.241553
0.124254 -0.324357 1.559180 0.049052 -0.091169 -0.994627
0.123428 -0.142291 1.063374 0.680722 0.732522 0.005452
0.111973 -0.159333 1.237688 0.928454 -0.367838 0.051658
0.137951 -0.327526 1.835564 0.904439 0.142325 0.402161
0.152085 -0.133851 1.906048 0.902176 -0.095464 -0.420671
0.138550 1.767580 -0.387519 0.467152 -0.023089 -0.883875
0.149873 -0.553998 1.808643 0.585852 0.038751 0.809491
0.105818 -0.285425 1.168007 0.924546 -0.373931 0.073421
0.108901 -0.136042 1.831039 0.527394 -0.145874 0.837004
0.129096 -0.879516 1.486249 0.176761 0.108825 -0.978219
0.072497 0.636968 -0.520383 0.281126 -0.192703 -0.940124
0.159239 -0.257699 1.825051 0.179761 -0.249085 0.951653
0.069379 -0.265221 1.842420 0.784078 -0.185631 0.592252
0.130138 1.597470 -0.332022 0.376642 0.237029 -0.895521
0.125588 1.354379 -0.462406 0.267979 0.354733 -0.895741
0.167370 -0.341903 1.596261 0.024934 -0.105581 -0.994098
0.085790 -0.079847 1.930520 0.709094 -0.536744 -0.457265
0.094920 -0.002060 1.947327 0.814959 0.278742 0.508079
0.161184 2.500867 -0.658259 0.809340 -0.158184 -0.565639
0.166019 -0.063621 1.952261 0.411708 0.162668 0.896680
0.068606 1.882993 0.339117 0.325901 0.725660 0.605975
0.161018 -0.132673 1.926739 0.361627 -0.890820 0.275072
0.167434 0.204268 0.570051 0.120118 -0.090811 0.988598
0.163668 -0.104549 2.048044 0.510171 -0.055533 0.858278
0.136848 -0.297897 1.869555 0.388543 -0.481998 0.785311
0.102507 1.548614 -0.341301 0.302139 0.323122 -0.896830
0.083189 1.849516 -0.306994 0.477379 -0.239354 -0.845470
0.101224 -0.946558 1.828366 0.689598 -0.159683 0.706368
0.125519 -0.358152 1.865068 0.849882 -0.069153 0.522417
0.085871 -0.097370 1.991185 0.475958 -0.162813 0.864266
0.166361 -0.550164 1.564903 0.059479 0.218474 -0.974028
0.105675 -0.146221 1.903057 0.620708 -0.039268 -0.783058
0.131776 -0.175461 1.960168 0.858750 -0.426136 0.284528
0.061008 0.007281 -0.276789 0.376464 -0.614090 -0.693663
0.096162 -1.040455 1.764254 0.585403 -0.486586 0.648488
0.089497 -0.076934 1.904248 0.273977 -0.393249 0.877663
0.090688 -0.294605 1.914597 0.756919 -0.249913 0.603836
0.066523 -1.149675 1.761061 0.303099 -0.795050 -0.525383
0.154323 -0.161573 1.957978 0.477369 -0.249715 0.842473
0.056991 -0.311548 1.784899 0.773730 -0.411047 0.482061
0.068882 0.029910 1.906447 0.876300 0.335480 0.345762
0.146651 -0.135632 1.889424 0.175043 -0.964634 0.197083
0.101691 2.442738 -0.700952 0.677021 0.695218 0.241483
0.164705 2.346293 -0.531467 0.527734 0.748528 0.401501
0.113997 -0.324313 0.864345 0.649308 -0.751155 0.119014
0.167742 -1.136289 1.769586 0.354519 -0.934773 0.022717
0.163781 -0.235296 1.551132 0.653816 -0.755180 -0.047194
0.119085 0.238733 -0.409554 0.335169 -0.470768 -0.816112
0.089614 -0.092498 -0.113818 0.341838 -0.727963 -0.594321
0.158344 -0.184634 1.934047 0.771326 -0.238566 -0.590036
0.148190 0.026756 1.973950 0.408845 0.233010 0.882356
0.082133 0.393047 -0.440666 0.321374 -0.337490 -0.884771
0.156832 -0.439515 1.843382 0.822682 0.082712 0.562453
0.141231 -0.397809 1.647662 0.015373 -0.073984 -0.997141
0.097951 -0.998536 1.859186 0.656232 -0.717462 0.233684
0.145073 -0.974672 1.894654 0.686003 -0.194818 0.701032
0.093808 2.403483 -0.661655 0.578608 -0.465430 -0.669767
0.110764 0.127643 0.522922 0.134651 0.093922 0.986432
0.053659 -1.022427 1.816504 0.645730 -0.746785 0.159200
0.164361 -0.160678 1.962836 0.426401 -0.323184 0.844828
0.103461 -0.236218 1.921782 0.673384 -0.170126 0.719452
0.156163 -0.942960 1.882896 0.724471 -0.321390 0.609795
0.127222 -0.317728 1.875152 0.896353 0.074842 0.436978
0.100580 -1.166444 1.751119 0.240862 -0.681872 -0.690678
0.057946 2.041764 0.174423 0.342793 0.801702 0.489659
0.161731 1.940996 -0.442851 0.450549 -0.360172 -0.816873
0.080164 -0.151970 1.854394 0.228397 -0.002690 0.973564
0.082939 -0.194684 1.921242 0.268192 0.020251 -0.963153
0.115364 -0.443904 1.645915 0.028862 0.048204 -0.998420
0.151801 -0.082304 1.910840 0.227075 -0.516568 0.825587
0.087685 0.068765 1.916170 0.544697 0.722574 0.425666
0.077433 0.075060 2.004310 0.679945 0.364281 0.636376
0.103548 -0.204780 1.461481 0.689774 -0.720412 0.072239
0.108067 -1.090073 1.852452 0.313042 -0.783522 0.536747
0.160404 -0.250783 1.952087 0.521028 -0.146886 -0.840806
0.126463 -0.085306 1.885327 0.535514 -0.504378 -0.677368
0.133312 -0.077445 1.864139 0.465121 -0.884952 -0.022839
0.125313 -0.210710 1.980297 0.674636 -0.715496 -0.181469
0.126173 -0.516847 1.837481 0.603828 -0.000397 0.797115
0.124951 -0.168915 0.110385 0.257187 -0.838028 -0.481211
0.140703 0.187955 1.750996 0.109607 0.960504 -0.255771
0.074906 2.482714 -0.755618 0.779058 0.438918 -0.447682
0.138745 0.059619 0.586233 0.187264 0.320855 0.928431
0.154182 -0.238237 1.309768 0.709709 -0.693219 0.125538
0.117316 -0.948726 1.899941 0.644291 -0.549769 0.531643
0.087618 -0.938288 1.911740 -0.958202 -0.101117 0.267629
0.059660 -1.006736 1.830714 -0.999834 0.017080 0.006419
0.092492 -0.930700 1.859294 -0.344672 -0.196656 0.917893
0.145289 0.048591 1.582598 0.209998 0.652629 -0.727995
0.100092 -0.301535 1.869530 0.609906 -0.425829 0.668344
0.138822 -0.724627 1.834472 0.525436 0.105711 0.844240
0.076774 -0.271994 1.874508 0.815264 -0.173234 0.552571
0.138880 -0.234006 1.934992 0.344060 -0.511595 0.787333
0.098233 -0.326332 1.018316 0.708750 -0.692701 0.133562
0.144040 0.177102 1.856827 0.162807 0.984107 0.070902
0.069329 -0.009883 1.565230 0.280439 0.762278 -0.583341
0.145048 -0.991477 1.815151 -0.829413 -0.557694 0.032418
0.137415 -1.001865 1.881646 -0.865210 -0.457560 -0.205063
0.073411 -1.009921 1.931331 -0.330874 -0.638175 0.695165
0.051252 -1.137317 1.686936 0.286197 -0.826044 -0.485533
0.114715 -0.222178 1.903421 0.630979 -0.510351 0.584301
0.127894 -0.286389 1.197110 0.723422 -0.679154 0.124139
0.081091 -0.947539 1.865963 -0.824094 0.407924 0.393022
0.081236 -0.933126 1.918928 -0.874057 0.443814 0.197618
0.135586 -0.980476 1.870784 -0.231458 0.047671 0.971676
0.088443 -0.253471 1.924687 0.552878 -0.498667 -0.667576
0.132365 2.101438 0.042119 0.364469 0.821341 0.438819
0.132918 -0.963234 1.886122 0.600649 -0.241919 0.762034
0.139464 -0.906632 1.906021 -0.490366 -0.380968 0.783840
0.122896 -0.687742 1.837075 0.456905 0.084490 0.885494
0.113740 2.030454 -0.451149 0.416231 -0.445184 -0.792820
0.048832 2.490273 -0.723959 0.634706 -0.003495 -0.772746
0.038169 -0.098325 1.851364 0.374375 -0.647272 0.663989
0.106160 -1.133984 1.781438 0.195589 -0.399197 0.895760
0.119955 -1.007141 1.808856 -0.350209 -0.730472 0.586315
0.145283 0.095315 0.564800 0.263557 0.648334 0.714283
0.107032 2.456149 -0.694175 0.544275 -0.424373 -0.723653
0.088363 -0.262404 1.864060 0.391309 0.030305 0.919760
0.090194 -0.957989 1.814832 -0.483640 0.053557 0.873627
0.134625 -0.354266 1.825225 0.826046 0.085002 0.557156
0.128730 -0.241385 1.080655 0.728505 -0.675273 0.115269
0.104131 -0.113221 1.846514 0.181752 0.020691 0.983127
0.099343 -1.025184 1.557316 0.401087 -0.719173 -0.567380
0.092154 2.433831 -0.592937 0.464903 0.775764 0.426679
0.133354 0.114058 1.901627 0.578136 0.604936 0.547550
0.110719 0.057919 1.630082 0.162998 0.834323 -0.526627
0.065807 2.505116 -0.691786 0.599118 0.799973 -0.033184
0.137909 -0.207081 1.985738 0.327287 0.015490 -0.944798
0.038766 -0.083171 1.984873 0.669253 -0.487981 -0.560335
0.093389 -0.188085 1.888702 0.368270 -0.061000 -0.927716
0.090432 0.075177 1.548929 0.217775 0.590022 -0.777463
0.087128 -0.175368 1.883171 0.732893 -0.656015 -0.180312
0.129421 0.060004 0.639142 0.297700 0.855016 0.424643
0.132424 0.028961 1.582800 0.303500 0.856125 -0.418256
0.137788 -0.254910 1.876234 0.453622 -0.403296 -0.794720
0.046344 0.006311 0.680017 0.318647 0.897617 0.304544
0.031499 -0.903296 1.897644 0.572780 -0.037387 0.818856
0.050673 -0.965937 1.829368 -0.377735 -0.921733 -0.087888
0.102268 -0.927383 1.864867 -0.512542 -0.783893 -0.350446
0.115588 -0.914388 1.883066 -0.092670 -0.925341 0.367636
0.063685 -1.034272 1.827805 -0.062311 0.395906 0.916175
0.077063 -0.368963 1.894309 0.621059 -0.019766 0.783515
0.100431 -0.922572 1.839161 0.559880 -0.212165 0.800949
0.100009 -0.283241 0.179538 0.226564 -0.911273 -0.343874
0.095544 -1.103951 1.644144 0.310283 -0.866242 -0.391599
0.062604 -0.237343 1.875167 0.534653 -0.251588 0.806752
0.064367 0.000295 0.735158 0.331123 0.913498 0.236387
0.136683 -0.986894 1.907114 0.132053 -0.832302 0.538363
0.127254 0.074538 1.974079 0.429686 0.264375 0.863409
0.099674 -0.993065 1.899114 -0.496547 0.589334 0.637281
0.090710 -0.936105 1.844416 -0.614387 0.720586 0.321380
0.068864 -1.008441 1.891352 -0.036759 0.114220 0.992775
0.087389 -1.031734 1.841257 0.009475 0.275348 0.961298
0.106113 -0.127448 1.898497 0.741960 -0.644626 0.184261
0.110632 -0.956081 1.901963 -0.153034 0.223868 0.962530
0.099581 0.052403 1.615112 0.202835 0.672993 -0.711294
0.114502 2.285821 -0.146946 0.377066 0.823338 0.424188
0.050192 -0.206786 1.952863 0.445212 -0.888434 0.111678
0.073788 -1.005233 1.546213 0.194760 -0.212177 -0.957627
0.055647 -1.051728 1.857559 0.501110 -0.732453 0.460871
0.119092 2.470860 -0.659977 0.423188 0.818126 0.389336
0.088620 -0.555453 1.879609 0.429095 0.004929 0.903246
0.112931 -0.019185 1.425729 0.307330 0.897433 -0.316485
0.068724 2.169276 -0.602308 0.383349 -0.499790 -0.776694
0.101763 -0.919588 1.833843 0.390488 -0.381571 0.837808
0.118087 2.445163 -0.703890 0.462943 -0.321724 -0.825941
0.115464 -0.208434 1.917867 0.228132 0.137763 0.963835
0.119201 -0.211322 1.830806 0.292128 -0.059343 0.954536
0.061250 0.108953 1.932787 0.636989 0.538784 0.551323
0.130047 -1.053387 1.775435 -0.168477 0.737483 0.654014
0.028122 -0.999872 1.837486 0.548110 -0.424386 0.720744
0.041830 -0.226247 1.945128 0.286429 -0.140208 -0.947787
0.083429 -1.033113 1.832410 0.508255 -0.853902 0.111930
0.074389 -0.108771 0.923049 0.330659 0.929085 0.165728
0.027712 -0.120381 1.971752 0.691796 -0.317644 -0.648476
0.021830 -0.276169 1.899048 0.768692 0.009869 0.639542
0.023985 -0.298442 1.912780 0.420240 -0.014846 0.907291
0.063957 -0.970458 1.908246 0.569431 -0.672479 0.472780
0.130665 -0.936019 1.820321 0.423319 -0.905712 -0.022077
0.058798 -0.994776 1.930657 0.266716 -0.880363 -0.392203
0.078904 -1.011958 1.884405 0.419951 -0.900055 0.116367
0.104500 -0.190143 1.966744 0.322383 0.045643 -0.945508
0.058384 -0.021938 1.442774 0.300577 0.920200 -0.250770
0.040810 -0.977162 1.898944 0.330561 0.100829 0.938383
0.016190 -1.039398 1.811228 0.521034 -0.802612 0.290411
0.093065 -0.284727 1.837384 0.610700 -0.010966 0.791786
0.035769 -0.774970 1.471247 0.077990 0.307389 -0.948383
0.076972 -0.269678 0.428864 0.237211 -0.945059 -0.224932
0.044812 2.463210 -0.654206 0.412318 0.873791 0.257843
0.052217 -0.959185 1.895503 0.302217 0.622900 0.721568
0.128377 -1.017770 1.823726 0.231016 0.888050 0.397490
0.037294 -1.024259 1.893640 0.652302 -0.055772 0.755904
0.106342 -0.177356 1.909401 0.793932 -0.404644 0.453801
0.065783 2.294849 -0.320738 0.357053 0.827338 0.433618
0.079206 -0.016867 1.329105 0.301905 0.936918 -0.176175
0.033910 -0.178824 1.893551 0.859785 -0.484356 -0.161770
0.025740 -0.076662 1.013913 0.324094 0.941813 0.089169
0.042209 -0.941966 1.892341 0.771937 -0.449864 0.449149
0.082764 -0.204125 1.916823 0.389308 -0.490198 -0.779836
0.068396 -0.925873 1.845549 0.720492 -0.095670 0.686832
0.125650 -0.062709 1.207055 0.303717 0.949323 -0.080883
0.026705 -0.396738 0.560006 0.244827 -0.962745 -0.114815
0.051257 -0.600302 1.524234 0.064044 0.330874 -0.941499
0.071672 -0.280772 1.959896 0.433109 -0.738606 -0.516603
0.089706 -0.312983 1.938309 0.581736 -0.230857 0.779928
0.069676 -0.101182 1.149264 0.312327 0.949943 0.007756
0.019907 -0.918867 1.462710 0.107784 0.179377 -0.977858
0.121112 -0.221761 1.900419 0.287798 0.162132 0.943867
0.060643 2.285309 -0.606654 0.366482 -0.545569 -0.753688
0.046691 -0.915199 1.884463 0.886316 -0.459930 0.053924
0.012671 -0.997501 1.868403 0.872844 -0.445923 -0.198234
0.068477 -0.945143 1.850769 0.833145 -0.516769 0.197025
0.102526 0.165768 1.943615 0.503755 0.588417 0.632452
0.117200 -0.428040 1.898970 0.426129 -0.050459 0.903254
0.063710 -0.342247 0.687586 0.253831 -0.967202 -0.009474
0.061762 -0.036331 1.989239 0.127422 0.136334 0.982434
0.105517 -0.973659 1.909161 0.842471 -0.246531 0.479026
0.020669 -0.970086 1.853683 0.918691 0.223198 0.325867
0.024180 -1.006440 1.841335 0.923261 0.350346 0.157625
0.084228 -1.023405 1.830450 0.813404 -0.214085 0.540870
0.101697 -0.072087 1.969400 0.160368 0.016510 0.986919
0.101001 -0.221038 1.898896 0.234659 -0.010900 -0.972017
0.107925 -0.145000 1.926416 0.313141 0.093254 0.945117
0.053836 -1.013132 1.915076 0.584703 -0.455774 0.671113
0.018956 -0.135147 2.064216 0.157297 -0.132762 0.978587
0.007896 -0.278371 1.978716 0.283257 -0.168263 -0.944168
0.021083 -0.211162 1.592833 0.137085 -0.484273 -0.864111
0.083831 0.122985 1.899798 0.135364 0.982801 0.125613
0.102945 -1.004022 1.812610 0.362881 -0.746849 0.557256
0.074971 -0.929784 1.919200 0.983587 -0.124814 0.130299
0.024191 -0.934742 1.862810 0.997899 -0.059449 -0.025746
0.070702 -0.991258 1.887351 0.868499 -0.319557 0.378937
0.103080 -0.316273 1.613669 0.068147 -0.099989 -0.992652
0.049215 -0.198480 1.590597 0.218020 -0.947322 -0.234623
0.075733 -0.313118 1.581905 0.043919 -0.171533 -0.984199
0.063545 -0.190513 2.029240 0.149684 -0.269376 0.951331
0.052327 -0.145510 1.956965 0.626850 -0.231443 -0.743972
0.013716 -0.060018 2.063877 0.156752 0.119995 0.980321
0.092613 -0.353773 1.608450 0.024623 -0.131924 -0.990954
0.031412 -0.607470 1.604152 0.055881 0.256508 -0.964925
0.007101 -0.232924 1.536475 0.263700 -0.962884 0.057586
0.042861 -0.205691 1.849447 0.411394 -0.058121 0.909603
0.024205 -0.221483 1.938350 0.127985 -0.345279 0.929732
0.078994 -0.268859 1.887480 0.543413 -0.035077 0.838732
0.012547 -0.417554 1.868155 0.413212 -0.072882 0.907713
0.056191 -0.403180 0.890372 0.286537 -0.955294 0.072866
0.074210 -0.984924 1.880572 0.385422 -0.640065 0.664655
0.059797 -0.955515 1.915785 0.426497 -0.372050 0.824426
0.109332 2.465682 -0.486825 0.320663 0.833182 0.450536
0.080316 2.348792 -0.647150 0.343689 -0.561367 -0.752824
0.095868 -0.333122 1.589007 0.017985 -0.056801 -0.998224
0.050823 -0.193816 1.452648 0.298484 -0.941420 0.156957
0.093500 -1.020757 1.908353 0.498785 -0.490954 0.714267
0.060608 -0.142385 1.896745 0.761623 -0.272099 0.588126
0.038128 -0.204870 1.951315 0.207816 -0.010645 -0.978110
0.074699 -0.250019 1.942704 0.314510 0.134386 0.939693
0.084949 -0.229084 1.945414 0.336520 0.172430 0.925755
0.048376 -0.309318 1.986057 0.119788 -0.490689 0.863062
0.066452 -0.156565 1.935775 0.878152 -0.465253 -0.111303
0.017019 -0.469052 1.643064 0.033860 0.098850 -0.994526
0.072519 2.552694 -0.725916 0.415050 0.650150 -0.636427
0.016303 0.107277 1.966720 0.385943 0.464974 0.796773
0.059518 -0.228513 1.348330 0.331466 -0.918900 0.213900
0.103039 -0.228657 1.914151 0.412863 -0.137787 -0.900311
0.103267 -0.352578 1.202389 0.348079 -0.917034 0.194652
0.081616 2.465038 -0.728069 0.320263 0.122730 -0.939345
0.080323 -0.274229 1.849593 0.385810 -0.077556 0.919313
0.048163 -0.899582 1.451973 0.115439 -0.114060 -0.986744
0.002821 -0.295067 1.044412 0.333998 -0.934621 0.122181
0.096676 2.509371 -0.682931 0.291944 0.942334 -0.163629
0.089516 2.383663 -0.755647 0.304173 -0.515731 -0.800937
0.011475 -0.237433 1.879328 0.420163 -0.137240 -0.897011
0.032741 -0.324418 1.093178 0.354671 -0.922162 0.154353
0.011521 -0.764837 1.870624 0.285733 0.156417 0.945458
0.062239 0.128158 1.913274 0.178097 0.946061 0.270649
0.000961 -0.204134 1.868745 0.536463 -0.362807 -0.761957
0.100359 2.444875 -0.721102 0.251838 -0.322993 -0.912279
0.097073 -0.653344 1.859583 0.265013 0.098454 0.959205
0.061697 -0.268454 1.874563 0.401177 0.196290 0.894722
0.036495 -0.253041 1.877898 0.560481 -0.040197 0.827191
0.083916 0.054785 2.010516 0.213590 0.123830 0.969044
0.002807 -0.267486 1.918909 0.429537 -0.062500 -0.900884
0.005213 2.418444 -0.537883 0.270495 0.846274 0.458970
0.092313 -0.923352 1.967896 0.417438 -0.296528 0.858962
0.041480 -0.289713 1.903754 0.259748 -0.893821 0.365534
0.030768 2.527177 -0.654410 0.229635 0.939319 0.254846
0.044854 -0.249498 1.843592 0.687312 -0.141985 0.712350
0.090806 -0.982161 1.902634 0.328348 -0.839160 0.433588
0.060876 -0.896274 1.925530 0.334410 0.078709 0.939135
-0.006141 -0.313966 1.867009 0.584280 0.034560 0.810816
0.090695 2.564846 -0.694020 0.223833 0.876965 0.425242
0.008285 -0.249249 1.899970 0.453892 -0.779687 -0.431359
0.077776 -0.215083 1.858034 0.879748 -0.410566 -0.239748
0.088823 -0.209379 1.953588 0.407350 0.055594 -0.911578
0.075357 -0.270438 1.863296 0.678139 -0.029589 0.734338
0.065017 -0.281441 1.894754 0.531488 0.187529 0.826047
-0.003399 0.168489 1.903517 0.255117 0.873741 0.414116
0.064556 -0.591625 1.919955 0.256116 -0.013018 0.966558
0.069360 -0.247917 1.888907 0.365714 -0.129211 0.921714
0.057561 -0.262661 1.964743 0.567675 -0.169165 -0.805685
0.087368 -1.018243 1.860347 0.291680 -0.551080 0.781814
0.059016 -0.180415 1.912068 0.612801 0.159732 0.773926
0.002953 -0.273454 1.874940 0.992522 -0.107478 -0.057857
-0.004222 -0.224549 1.903657 0.312444 -0.892555 -0.325154
0.004629 -0.195955 1.931748 0.975152 0.182303 -0.125872
-0.017452 -0.249465 1.960949 0.802954 -0.092057 0.588889
-0.024193 0.179888 1.996216 0.185483 0.858935 0.477312
0.028431 -0.428342 1.949068 0.242999 -0.068455 0.967608
0.019044 -1.000226 1.884418 0.262899 -0.756338 0.599030
0.025984 -0.254017 1.924245 0.575772 -0.680806 0.452758
0.044177 -0.273271 1.947359 0.964136 0.206601 -0.166608
0.004259 -0.277548 1.898376 0.984079 -0.161994 -0.073117
-0.017649 -0.881493 1.960536 0.295199 -0.182491 0.937846
0.030080 -0.349533 1.876198 0.214777 -0.083774 0.973064
0.074675 0.063526 2.007369 0.211058 0.213461 0.953881
0.035775 -0.321035 1.955548 0.168856 -0.096230 0.980932
0.067541 0.072308 1.998361 0.125655 0.788775 0.601701
0.000187 -0.282935 1.880521 0.179800 -0.959326 -0.217638
-0.015800 -0.312926 1.872364 0.101672 -0.230376 0.967776
0.040685 -0.300141 1.877668 0.066800 -0.833550 0.548390
-0.003611 0.162306 2.030938 0.126075 0.533322 0.836465
-0.018988 -0.082299 1.199284 -0.001155 0.994768 -0.102152
-0.029092 -0.028703 1.067488 -0.000798 0.999992 -0.003876
-0.023934 -0.026014 1.361413 -0.000649 0.980719 -0.195424
0.034037 1.050190 -0.585128 0.000009 0.166843 -0.985983
0.045295 1.216750 -0.460015 0.000008 0.301747 -0.953388
0.013643 1.396762 -0.433824 0.000009 0.352389 -0.935854
0.030026 1.698768 -0.369126 0.000012 0.135763 -0.990741
-0.029709 1.552875 -0.444829 0.000012 0.298054 -0.954549
0.051039 0.890219 -0.597744 0.000007 -0.004089 -0.999992
0.045720 1.697837 -0.366340 0.000009 -0.127515 -0.991837
-0.034040 2.171757 -0.526467 0.000006 -0.560318 -0.828278
0.018494 0.577453 -0.568799 0.000004 -0.168807 -0.985649
-0.037051 2.038964 -0.475271 0.000004 -0.505389 -0.862891
0.018561 2.317696 -0.676272 0.000002 -0.599759 -0.800181
-0.020068 1.884725 -0.366217 0.000007 -0.326282 -0.945273
0.025778 1.924694 -0.436057 0.000004 -0.433477 -0.901165
0.004071 0.360395 -0.460213 0.000001 -0.314109 -0.949387
-0.023096 2.361315 -0.642770 -0.000010 -0.592606 -0.805493
0.012146 0.113252 1.748803 0.000001 0.999943 -0.010672
0.028781 2.042462 0.276357 -0.000005 0.829572 0.558400
-0.038575 0.191801 0.519343 -0.000002 0.160275 0.987072
0.049149 0.343967 0.514458 -0.000001 -0.193464 0.981107
-0.042071 -1.079843 1.753222 -0.000003 -0.704986 -0.709221
0.016890 2.138956 0.034887 -0.000007 0.870810 0.491619
0.039045 0.569079 0.591184 -0.000001 -0.249601 0.968349
0.048712 0.058837 0.599029 -0.000005 0.918132 0.396274
-0.011233 1.607785 0.661965 -0.000002 0.442972 0.896536
0.013580 0.932705 0.722084 -0.000001 -0.199483 0.979901
-0.042834 1.340063 0.679831 -0.000002 0.060914 0.998143
0.003057 0.006442 0.818631 0.001888 0.974964 0.222356
0.038755 0.044494 1.523693 -0.000006 0.918012 -0.396553
-0.041541 0.149975 1.728458 -0.000003 0.986353 -0.164647
-0.002742 -1.137360 1.784168 -0.000005 -0.789323 0.613978
-0.015344 0.178704 -0.314787 -0.000004 -0.474588 -0.880208
-0.017934 -0.221363 0.215289 -0.000002 -0.920817 -0.389994
-0.009734 1.739582 0.556835 -0.000003 0.596294 0.802766
0.034844 0.037740 0.513359 -0.000005 0.768817 0.639469
-0.051304 0.804201 0.622799 -0.000001 -0.255577 0.966789
0.004649 0.043766 0.711126 0.000386 0.955414 0.295270
-0.014790 1.433173 0.684793 -0.000002 0.256361 0.966581
-0.030204 1.178495 0.721322 -0.000001 -0.092815 0.995683
0.036125 -0.011957 0.967063 0.001629 0.997039 0.076880
-0.025866 -0.038092 1.440508 -0.000006 0.945893 -0.324480
-0.058108 0.022358 1.493986 -0.000005 0.812262 -0.583292
0.022540 0.034673 1.624607 -0.000004 0.602534 -0.798093
-0.060598 -1.064512 1.597633 -0.000006 -0.925661 -0.378355
-0.062946 -1.190492 1.829973 -0.000005 -0.997823 0.065953
-0.013858 -1.105967 1.870431 -0.000004 -0.390372 0.920657
-0.050274 0.065491 2.029221 -0.000009 0.069797 0.997561
-0.050692 0.004710 -0.244864 -0.000005 -0.630973 -0.775805
0.006587 -0.183305 0.057770 -0.000004 -0.857870 -0.513867
-0.020226 1.897483 0.361213 -0.000004 0.728112 0.685458
-0.040512 0.206656 0.510470 -0.000002 -0.055964 0.998433
0.000036 0.058559 0.541344 -0.000003 0.417345 0.908748
-0.016199 0.095180 1.555209 -0.000004 0.711918 -0.702262
0.040068 0.026989 1.601267 -0.000003 0.700733 -0.713424
-0.025596 -1.136571 1.746937 -0.000005 -0.857829 -0.513934
-0.020347 -1.128035 1.741429 -0.000004 -0.896273 -0.443502
-0.012089 -1.130015 1.848183 -0.000001 0.220119 0.975473
-0.050680 -0.581375 1.949872 -0.000013 -0.035641 0.999365
-0.001582 -0.491158 1.848741 -0.000013 -0.073395 0.997303
-0.047360 -0.375082 1.893214 -0.000011 -0.082030 0.996630
0.012201 -0.328648 1.918037 -0.000008 -0.091030 0.995848
0.048375 -0.281725 1.944225 -0.000001 -0.270533 0.962711
0.014059 -0.233155 1.913860 -0.000015 -0.957170 -0.289528
0.029448 0.068592 1.963064 0.000005 0.800643 0.599142
-0.014065 0.080049 1.968733 -0.000012 0.226157 0.974091
-0.046498 2.499626 -0.769439 -0.000011 0.993984 -0.109528
-0.007137 2.508530 -0.726304 -0.000008 0.953496 0.301405
0.033431 2.479335 -0.666652 -0.000010 0.897849 0.440303
-0.027730 2.474889 -0.587934 -0.000011 0.880674 0.473723
0.041665 2.396802 -0.416776 -0.000010 0.879086 0.476662
-0.000906 2.365924 -0.286302 -0.000010 0.885524 0.464594
-0.055837 -0.285381 0.408453 -0.000003 -0.963484 -0.267766
-0.043314 -0.333932 0.520836 -0.000004 -0.989308 -0.145839
-0.055764 -0.388609 0.667590 -0.000078 -0.999411 -0.034305
0.032491 -0.413941 0.819129 0.001049 -0.998871 0.047494
-0.030702 0.002957 0.939155 0.003182 0.988831 0.149006
0.030288 -0.321573 0.960182 0.004543 -0.994539 0.104270
-0.048974 -0.078791 1.381865 -0.000252 0.963419 -0.267998
-0.019093 -0.896169 1.452603 -0.000001 0.162027 -0.986786
-0.039403 -0.731351 1.536083 -0.000003 0.316378 -0.948633
-0.042129 -0.648342 1.615700 -0.000002 0.335795 -0.941935
0.022283 -0.300500 1.566992 0.000081 -0.991771 -0.128024
0.025141 -0.274376 1.652082 -0.000298 -0.720899 -0.693040
0.050606 -0.561619 1.588104 -0.000002 0.281879 -0.959450
0.016231 -0.262861 1.652476 -0.000002 -0.156215 -0.987723
0.032585 -0.284854 1.597809 -0.000002 -0.189895 -0.981804
-0.044794 -0.299879 1.559872 -0.000001 -0.131616 -0.991301
-0.055176 -0.465707 1.641618 -0.000002 0.141312 -0.989965
-0.007757 -0.362907 1.581700 -0.000001 -0.033121 -0.999451
-0.020955 -1.023931 1.828551 -0.000026 0.467167 0.884169
0.012696 -1.038102 1.829203 0.000002 0.780541 0.625104
0.027760 -1.044894 1.823044 0.000122 -0.778030 0.628227
0.009288 0.119471 1.841061 0.000002 0.999174 0.040626
-0.058644 -0.688870 1.914453 -0.000011 0.074489 0.997222
0.001140 -0.744093 1.906317 -0.000011 0.166065 0.986115
0.032806 -0.287045 1.887258 -0.000000 -0.864065 0.503381
-0.002288 -0.234098 1.911949 -0.000011 -0.973511 -0.228641
0.050356 -0.839550 1.908843 -0.000009 0.087867 0.996132
-0.001443 0.110712 1.912588 0.000002 0.992890 0.119036
0.046520 -0.308927 1.948718 -0.000010 -0.827142 0.561993
0.026564 0.097817 1.916450 0.000002 0.963909 0.266232
0.051983 -0.204073 2.020781 -0.000004 -0.478574 0.878047
-0.000222 0.171349 1.914059 0.000004 0.909987 0.414637
0.017597 -0.191663 1.969404 -0.000003 -0.361307 0.932447
-0.008433 -0.152279 1.982217 -0.000003 -0.296464 0.955044
-0.033845 -0.052956 2.003866 -0.000005 0.062640 0.998036
-0.043124 -0.099008 1.997244 -0.000003 0.117150 0.993114
0.040323 -0.047675 2.055901 -0.000004 -0.165109 0.986275
0.018785 -0.100516 2.018452 -0.000003 0.046202 0.998932
-0.053352 2.283606 -0.135018 -0.000009 0.882288 0.470710
0.013700 -0.041745 -0.068907 -0.000005 -0.763775 -0.645482
0.042735 0.119321 1.633475 -0.000003 0.887209 -0.461368
0.022211 -1.017845 1.575763 -0.000009 -0.630794 -0.775950
-0.033813 -0.938937 1.933367 -0.000030 -0.507142 0.861862
-0.044572 2.513406 -0.706906 -0.000011 0.685508 -0.728065
-0.034068 -0.924427 1.500804 -0.000003 -0.171731 -0.985144
0.014149 -0.923662 1.921072 -0.000012 -0.214309 0.976766
-0.007739 0.078827 2.014836 -0.000004 0.548509 0.836145
-0.006617 2.445292 -0.774472 -0.000012 0.053360 -0.998575
-0.030048 2.416010 -0.782311 -0.000013 -0.328822 -0.944392
0.014219 2.410788 -0.697507 -0.000016 -0.523260 -0.852173
-0.004009 -1.047206 1.836080 0.000807 -0.858097 0.513487
0.009220 -0.277457 1.553792 0.001808 -0.994734 0.102476
-0.008156 -1.023563 1.793127 0.002079 -0.999993 -0.003263
-0.025154 -0.317313 1.182987 0.006423 -0.987977 0.154468
0.040291 -0.201062 1.426943 0.003886 -0.979011 0.203768
-0.022219 -0.280667 1.341764 0.004218 -0.970419 0.241389
-0.001041 -0.314915 1.285524 0.004859 -0.978372 0.206797
-0.060947 0.147160 2.051413 -0.126110 0.533319 0.836461
0.030248 -0.217361 1.941031 -0.066839 -0.833553 0.548381
0.015046 -0.312056 1.909350 -0.101725 -0.230361 0.967774
