827
-0.652899 -0.388283 -0.525981 -0.311054 -0.325981 -0.892739
-0.670777 -0.602421 -0.288770 -0.404850 -0.063924 0.912146
-0.778841 -0.678081 -0.442496 -0.906736 -0.350087 -0.235094
-0.727480 0.179344 -0.372010 -0.122027 0.971512 -0.203160
-0.863191 -0.607720 -0.387680 -0.854119 -0.347658 0.386800
-0.780778 -0.174348 -0.566391 0.787236 -0.307565 -0.534476
-0.776285 -0.475296 -0.339042 -0.869535 -0.459185 -0.181817
-0.852537 0.004226 -0.450091 0.680877 -0.086174 -0.727310
-0.789439 -0.603954 -0.455556 -0.889057 -0.216085 0.403590
-0.747723 -0.229107 -0.496062 0.904643 -0.341520 -0.254922
-0.750899 0.162644 -0.333663 -0.406298 0.869581 0.280625
-0.812256 1.022587 -1.881997 -0.905838 0.423017 0.022696
-0.827149 0.480016 -1.960399 0.398854 -0.439769 0.804686
-0.782559 -0.528839 -0.441098 -0.944034 -0.234885 -0.231579
-0.758108 -0.297908 -0.424935 0.847618 0.459537 0.265273
-0.746923 0.925169 -1.886324 -0.525701 0.060983 0.848481
-0.737045 0.034535 -0.394655 -0.636012 0.562719 0.528049
-0.716619 -0.049083 -0.344994 0.372872 -0.408373 0.833185
-0.767918 -0.337619 -0.307475 0.893646 -0.215157 0.393832
-0.820539 0.466297 -1.869195 0.683534 -0.680457 0.264121
-0.800713 -0.342463 -0.473602 0.875519 0.351014 -0.332049
-0.814895 -0.550602 -0.427263 -0.897162 -0.163340 0.410391
-0.767098 -0.554344 -0.297176 -0.941074 -0.187386 -0.281544
-0.840286 0.083733 -0.317017 -0.556930 -0.035412 0.829804
-0.867195 -0.414645 -0.451992 -0.093765 -0.606540 -0.789505
-0.705769 -0.177289 -0.403722 0.500057 -0.175664 0.847989
-0.774638 0.484136 -1.902963 0.607864 -0.238805 -0.757280
-0.759805 0.026022 -0.533627 0.246672 0.961480 -0.121283
-0.799606 0.128021 -0.562193 0.076246 0.622404 -0.778974
-0.662654 -0.419719 -0.357347 -0.865374 -0.378585 -0.328331
-0.729724 0.621633 -2.011096 0.089419 -0.029257 -0.995564
-0.831151 -0.490577 -0.358523 0.692885 0.046009 -0.719579
-0.893797 -0.442668 -0.366842 -0.860284 -0.311022 0.403951
-0.741074 -0.384317 -0.360625 0.884523 0.374604 0.278014
-0.782666 -0.033620 -0.543926 0.611565 -0.202294 -0.764896
-0.687185 0.414880 -1.889226 0.573151 -0.741332 0.349178
-0.874742 0.060912 -0.569048 0.035336 0.306079 -0.951350
-0.673558 -0.416393 -0.368382 -0.380610 -0.114624 0.917604
-0.876644 0.909880 -2.093816 -0.691963 0.408192 -0.595455
-0.765681 -0.404916 -0.399001 0.891482 0.335511 -0.304453
-0.827890 -0.336015 -0.442704 0.926984 -0.188593 0.324241
-0.874072 -0.189720 -0.349897 -0.329889 -0.187491 0.925214
-0.898302 -0.468089 -0.432450 0.893142 0.350634 0.281697
-0.879728 0.574390 -1.884686 0.126525 -0.606837 0.784691
-0.727004 -0.422417 -0.531394 0.827435 -0.324436 -0.458359
-0.890971 -0.341060 -0.288457 0.487537 -0.121722 0.864576
-0.859372 0.419701 -1.978537 0.567953 -0.421695 -0.706826
-0.824579 -0.313779 -0.342511 0.886004 0.360822 -0.291213
-0.867951 -0.281754 -0.352170 0.959593 0.063971 0.274024
-0.894435 0.077048 -0.409140 -0.713852 0.153444 0.683279
-0.832768 0.061564 -0.584949 -0.149604 0.927215 -0.343352
-0.878628 -0.136245 -0.490708 0.618181 -0.414878 -0.667629
-0.688053 -0.444591 -0.435178 -0.628296 -0.718041 -0.299433
-0.720290 -0.429949 -0.474936 0.261658 0.324352 0.909028
-0.885883 -0.026921 -0.435324 -0.130970 -0.249185 0.959559
-0.703596 0.097909 -0.306637 -0.749392 0.450555 0.485192
-0.784242 0.550102 -1.985215 0.019522 -0.580218 0.814227
-0.817256 -0.439561 -0.374269 0.907457 0.181835 -0.378758
-0.791901 0.048004 -0.617949 -0.019918 0.081789 -0.996451
-0.851569 -0.569621 -0.465094 0.529281 -0.528358 -0.663852
-0.772990 0.781240 -1.801111 -0.050486 -0.067440 0.996445
-0.710034 0.473286 -2.034923 0.519369 -0.528168 -0.671785
-0.884668 0.110590 -0.385283 -0.557276 0.528598 -0.640333
-0.721793 0.949642 -1.944860 -0.883805 0.424170 0.197403
-0.740475 -0.389917 -0.378127 -0.717560 -0.541310 0.438283
-0.874600 -0.085829 -0.440863 0.460690 -0.347225 -0.816823
-0.759336 -0.266533 -0.319647 0.417033 0.369705 0.830302
-0.899678 0.902622 -1.794562 -0.618888 0.157514 0.769524
-0.842189 -0.075646 -0.355910 -0.037957 -0.122613 0.991729
-0.831552 -0.426602 -0.314332 0.534290 -0.119974 0.836744
-0.908303 -0.415776 -0.313577 0.408707 0.280577 0.868467
-0.824196 -0.410650 -0.320210 0.470364 0.011696 0.882395
-0.883588 -0.363468 -0.380739 0.076898 -0.996751 -0.023942
-0.881087 -0.097713 -0.273560 -0.679649 -0.004967 0.733521
-0.707538 0.153865 -0.467342 -0.512792 0.858483 -0.007091
-0.744870 0.056213 -0.526755 -0.670092 0.350274 -0.654435
-0.801160 -0.136476 -0.579017 -0.153243 -0.085625 -0.984472
-0.701734 -0.323319 -0.357433 -0.375278 -0.118338 0.919327
-0.755428 0.813533 -1.904443 -0.595282 0.300394 -0.745253
-0.886816 -0.039496 -0.459734 -0.784775 0.526418 -0.327128
-0.882811 -0.327542 -0.479384 0.537043 -0.411097 -0.736603
-0.878989 0.079732 -0.261282 -0.862596 0.203277 0.463256
-0.917311 0.589510 -2.130769 0.010832 -0.013074 -0.999856
-0.708731 -0.300040 -0.516386 0.733784 0.340649 -0.587809
-0.905607 -0.343821 -0.545858 0.735972 0.241141 -0.632611
-0.702474 -0.197345 -0.366371 -0.047862 -0.049649 0.997619
-0.928329 -0.146609 -0.295536 -0.615956 -0.059599 0.785523
-0.787619 -0.339347 -0.487927 0.722410 0.401957 -0.562632
-0.704047 -0.458181 -0.498654 0.716910 -0.525175 -0.458510
-0.768651 -0.514730 -0.472696 0.732453 -0.630058 0.257954
-0.710157 -0.057459 -0.419617 -0.774917 0.196048 -0.600890
-0.815605 -0.220545 -0.353578 0.701040 0.028451 -0.712555
-0.791130 0.548214 -1.789960 -0.124036 -0.237319 0.963481
-0.757589 -0.349335 -0.420374 0.686830 0.048055 -0.725228
-0.819770 -0.214055 -0.506473 0.419225 -0.419542 -0.805131
-0.929998 -0.455282 -0.492489 -0.375538 -0.617290 0.691321
-0.921927 -0.210793 -0.573579 -0.306600 -0.148646 -0.940160
-0.730100 0.039694 -0.555940 -0.949988 0.245132 -0.193475
-0.854111 -0.126496 -0.260941 -0.553845 -0.022072 0.832327
-0.852616 0.774419 -1.856250 -0.906321 0.416730 0.070128
-0.910614 -0.462526 -0.332932 0.901672 -0.302497 0.309002
-0.762745 -0.212110 -0.293346 -0.031664 -0.071623 0.996929
-0.902788 0.855025 -1.951620 -0.683768 0.221979 0.695116
-0.859799 0.025469 -0.285143 -0.906002 0.122375 0.405197
-0.881603 0.469720 -1.958509 -0.270693 -0.540701 0.796472
-0.829558 -0.050389 -0.467488 -0.780796 0.146110 -0.607461
-0.791843 0.067879 -0.400986 -0.966294 0.228783 0.118043
-0.819650 -0.490932 -0.445504 0.609002 -0.193090 -0.769306
-0.725741 -0.578273 -0.514956 0.822750 -0.279984 -0.494662
-0.882738 0.678278 -1.950824 -0.329558 -0.515294 0.791115
-0.801664 -0.258493 -0.286637 -0.115579 -0.003758 0.993291
-0.775650 -0.416990 -0.474318 -0.154299 0.234608 0.959766
-0.897424 -0.279378 -0.421229 -0.211162 0.049935 0.976175
-0.854092 -0.157991 -0.579772 -0.951845 0.216465 -0.217104
-0.754627 -0.636979 -0.410288 0.938826 -0.211228 0.272010
-0.805559 -0.402513 -0.392359 -0.259217 0.150368 0.954042
-0.831290 -0.374300 -0.447078 0.089603 -0.569934 0.816791
-0.822633 -0.610820 -0.558773 0.875372 -0.165019 -0.454415
-0.834942 -0.035511 -0.400240 -0.875529 0.102617 0.472142
-0.755541 0.510432 -2.096855 -0.018940 -0.041994 -0.998938
-0.853342 -0.179408 -0.491542 -0.978421 0.199070 0.055345
-0.815672 -0.542394 -0.529700 0.928864 -0.277626 0.245226
-0.732999 -0.382990 -0.374925 0.442868 -0.425450 -0.789215
-0.878912 -0.197623 -0.419173 -0.538245 0.072601 0.839656
-0.925716 0.818239 -1.916539 -0.461239 0.208391 -0.862457
-0.812916 -0.110982 -0.634366 -0.801492 0.112372 -0.587353
-0.808384 -0.272496 -0.565190 -0.054108 -0.278282 -0.958974
-0.865184 -0.404511 -0.592754 0.469283 -0.463276 -0.751764
-0.914147 -0.465534 -0.331574 -0.165425 -0.282531 0.944887
-0.916588 -0.473064 -0.438397 0.883618 -0.095109 -0.458448
-0.767781 0.631993 -2.041215 -0.080040 -0.116477 -0.989963
-0.776314 -0.145661 -0.590475 -0.943761 0.241009 -0.226342
-0.817528 -0.581189 -0.399552 0.068267 -0.120240 0.990395
-0.887856 -0.343873 -0.280805 -0.453589 -0.044689 0.890090
-0.816535 -0.060436 -0.383440 -0.812029 0.119184 0.571318
-0.855914 -0.269680 -0.587252 0.622721 -0.053793 -0.780592
-0.821089 -0.661502 -0.545290 0.912944 -0.360405 0.191422
-0.814806 -0.425484 -0.522949 0.680067 0.394221 -0.618141
-0.787792 -0.184422 -0.338609 -0.969727 0.218092 0.109843
-0.954143 -0.218313 -0.558466 0.684040 0.396389 -0.612344
-0.859284 -0.623161 -0.487540 0.888291 -0.033716 -0.458041
-0.741859 -0.512780 -0.416687 0.089362 -0.282833 0.954997
-0.873345 -0.358832 -0.453937 0.693869 0.284816 -0.661382
-0.853867 0.740242 -1.968156 -0.576736 0.140558 0.804748
-0.870434 -0.581108 -0.389769 0.507807 -0.220180 -0.832859
-0.865836 0.791757 -1.976124 -0.913475 0.397154 -0.088502
-0.752677 -0.630602 -0.446028 0.557384 -0.089880 -0.825375
-0.897788 -0.288211 -0.464266 -0.474794 0.049362 0.878711
-0.840316 -0.562672 -0.472750 0.842203 -0.528484 0.106759
-0.953221 -0.266918 -0.464673 -0.945773 0.216881 -0.241819
-0.749542 -0.444601 -0.477585 0.476103 -0.369513 -0.797989
-0.944549 -0.735999 -0.393007 0.855286 -0.154380 -0.494624
-0.885148 -0.338707 -0.320464 -0.478845 -0.204881 0.853657
-0.757970 -0.142320 -0.405082 -0.732336 0.031697 -0.680205
-0.753988 -0.206587 -0.488668 0.114176 -0.288710 -0.950584
-0.807153 -0.556686 -0.425116 0.101282 -0.485558 0.868318
-0.860563 -0.103886 -0.469226 -0.958051 0.227156 0.174750
-0.891940 -0.300278 -0.474493 0.669733 0.082859 -0.737965
-0.760670 -0.220996 -0.436935 -0.500842 -0.071721 0.862562
-0.837910 -0.214263 -0.433617 -0.788644 0.192663 0.583885
-0.910567 -0.713937 -0.463731 0.644557 -0.761826 -0.064559
-0.838829 -0.679447 -0.438431 0.572970 0.055115 -0.817721
-0.847399 -0.350375 -0.392204 -0.573075 -0.099685 0.813417
-0.861919 -0.632856 -0.476265 0.719605 -0.435028 -0.541220
-0.872029 -0.478209 -0.347649 -0.555420 -0.315958 0.769207
-0.860996 -0.307520 -0.387663 -0.536146 0.071571 0.841086
-0.871849 -0.396447 -0.388330 0.419578 0.122801 -0.899374
-0.850317 -0.660256 -0.527274 0.083529 -0.678996 0.729375
-0.828514 -0.538324 -0.386189 0.776783 -0.398018 -0.488047
-0.875038 -0.714538 -0.372104 0.669867 -0.742304 0.016235
-0.897406 0.623967 -1.906628 -0.606218 -0.450215 0.655596
-0.944923 -0.479919 -0.431715 0.536692 -0.225355 -0.813128
-0.769086 -0.581601 -0.372901 -0.739333 0.056628 0.670955
-0.938766 -0.699738 -0.370158 0.576218 0.178474 -0.797571
-0.921189 -0.567360 -0.454939 -0.790056 -0.118324 0.601507
-0.929931 -0.365496 -0.323708 -0.558457 0.104048 0.822982
-0.802547 -0.258101 -0.526233 0.541597 0.539014 -0.645086
-0.854563 -0.388643 -0.408740 0.322885 -0.380398 -0.866627
-0.763647 -0.316461 -0.405279 -0.944527 0.190259 -0.267714
-0.900029 -0.514151 -0.526511 -0.682061 -0.380690 0.624394
-0.974267 0.574171 -1.978178 -0.590395 -0.080350 0.803105
-0.840872 -0.560436 -0.343508 0.002742 -0.882716 0.469899
-0.878740 0.510313 -1.887041 -0.540639 -0.474124 0.694921
-0.813575 0.722238 -2.064687 -0.611684 0.224426 -0.758601
-0.777307 -0.392811 -0.562883 0.091403 -0.277286 -0.956430
-0.791866 -0.378188 -0.435125 -0.641106 0.039251 -0.766448
-0.912436 -0.595913 -0.455971 0.551788 0.097978 -0.828209
-0.920485 -0.639408 -0.496576 -0.058419 -0.872663 0.484817
-0.937393 -0.318431 -0.505142 -0.958724 0.239639 0.153040
-0.986955 -0.494318 -0.417439 -0.709067 -0.024505 0.704715
-0.782259 -0.258368 -0.494989 0.564050 0.537593 -0.626771
-0.821903 -0.455857 -0.516202 0.091318 0.017027 -0.995676
-0.927904 -0.622425 -0.596772 0.490155 -0.173810 -0.854130
-0.831827 -0.183273 -0.371766 -0.813647 0.194613 0.547818
-0.969948 -0.628902 -0.446565 0.532362 -0.162960 -0.830683
-0.773716 -0.263713 -0.565301 -0.404778 0.429829 -0.807095
-0.927511 -0.440791 -0.508700 0.389585 -0.438472 -0.809917
-0.927502 -0.449711 -0.286070 -0.614582 0.038204 0.787928
-0.880888 -0.494630 -0.481733 -0.688865 -0.170159 0.704635
-0.795462 0.629810 -2.049768 -0.943506 0.318368 0.091861
-0.770283 -0.553108 -0.543314 0.000853 -0.637208 -0.770691
-0.948425 -0.201036 -0.423886 -0.787374 0.081904 0.611011
-0.766856 -0.368213 -0.583078 0.568127 0.435546 -0.698234
-0.841863 -0.182806 -0.526725 -0.927854 0.241386 -0.284290
-0.932847 -0.530940 -0.368769 -0.742369 -0.430375 0.513484
-0.783430 0.547588 -1.921850 -0.778291 -0.457777 -0.429771
-0.994272 -0.558111 -0.455599 0.074909 0.202414 -0.976431
-0.979986 -0.300550 -0.490914 -0.805678 0.001246 0.592353
-0.963386 -0.296342 -0.492933 0.002973 0.891494 -0.453022
-0.879492 -0.606571 -0.547234 -0.706535 -0.258467 -0.658789
-0.871756 -0.484036 -0.453107 -0.956377 -0.136735 0.258159
-0.771021 -0.624349 -0.410567 -0.663698 -0.573535 0.480169
-0.912330 -0.665792 -0.494850 -0.666934 -0.351606 0.656941
-0.928108 -0.638102 -0.383728 -0.620940 -0.629864 0.466589
-0.968404 -0.291703 -0.395432 -0.961120 0.255996 0.103507
-0.968989 0.464431 -1.926134 -0.869029 -0.394955 0.297991
-0.922360 -0.500670 -0.342202 -0.926208 0.165172 0.338905
-0.840190 -0.473662 -0.579890 -0.785917 0.212653 -0.580614
-0.954270 -0.249367 -0.455794 -0.789954 0.104304 0.604230
-0.974966 -0.646748 -0.582375 -0.095270 -0.211080 -0.972815
-0.832592 -0.346340 -0.500902 -0.750656 0.627211 -0.207660
-0.790847 -0.520684 -0.611946 0.341292 -0.468966 -0.814611
-0.775486 -0.502023 -0.547081 -0.009587 0.305051 -0.952288
-0.874168 -0.457291 -0.455567 -0.444741 -0.737399 -0.508377
-0.858566 0.488475 -1.973384 -0.678023 0.098357 -0.728431
-0.877937 0.542536 -1.896960 -0.789191 -0.276292 -0.548489
-0.798847 -0.543113 -0.481384 -0.126702 -0.181015 -0.975285
-1.005420 -0.376886 -0.593647 0.516583 0.241448 -0.821490
-0.926416 -0.333688 -0.525122 -0.666405 -0.136095 0.733064
-0.976330 -0.213581 -0.375742 -0.901569 0.380385 0.206110
-0.909300 -0.513216 -0.544478 -0.755427 -0.634099 0.165069
-0.860918 -0.307221 -0.424847 0.022954 0.893435 -0.448606
-1.010429 -0.520717 -0.593131 -0.092654 0.196630 -0.976090
-0.892696 -0.377557 -0.482651 0.242096 -0.536980 -0.808110
-0.922513 -0.316274 -0.580059 -0.542470 0.833797 -0.102508
-0.908678 -0.522742 -0.404658 -0.913424 0.116051 0.390114
-0.983951 -0.560004 -0.536976 -0.015789 -0.753154 -0.657655
-0.955179 -0.761671 -0.369471 -0.884222 -0.451625 0.119106
-0.897160 -0.619085 -0.411243 -0.803074 -0.311667 -0.507874
-0.951263 -0.230640 -0.535161 -0.868005 0.426758 0.253861
-0.901988 0.672297 -1.943016 -0.829481 -0.410707 0.378525
-0.965349 -0.652723 -0.503399 -0.829716 0.292862 -0.475188
-0.866852 -0.341465 -0.491861 -0.765492 0.188460 0.615228
-0.866127 -0.396567 -0.430373 -0.691119 -0.320711 0.647688
-0.783653 0.601089 -2.006309 -0.979103 0.084558 0.184953
-0.954218 -0.714159 -0.455831 -0.844853 -0.519957 0.125965
-1.005572 -0.444878 -0.483366 -0.295458 -0.864735 -0.406126
-0.954407 -0.639487 -0.398098 -0.784582 -0.406100 -0.468523
-0.799738 -0.512974 -0.520058 -0.924061 -0.002575 0.382236
-0.890498 -0.512885 -0.395458 -0.683901 -0.430620 0.588936
-0.892508 -0.283699 -0.342058 -0.846183 0.452697 0.281140
-0.844325 -0.321561 -0.529430 -0.565113 0.820522 -0.085965
-0.881093 -0.527054 -0.526500 -0.885132 0.227146 -0.406136
-0.855159 -0.615972 -0.432741 -0.929736 -0.207316 0.304322
-0.970301 -0.429568 -0.426203 -0.034638 0.819589 -0.571904
-0.923297 -0.417496 -0.643536 0.384845 -0.125851 -0.914361
-0.955333 -0.419461 -0.364981 -0.666598 -0.536487 0.517522
-0.804040 -0.445612 -0.418777 -0.564258 -0.816011 0.125458
-0.841750 -0.631895 -0.389383 -0.904206 -0.011646 -0.426937
-0.795688 -0.581628 -0.516052 0.189060 -0.739236 -0.646364
-1.004433 -0.413316 -0.571098 0.049199 -0.974491 -0.218966
-0.890745 -0.291686 -0.513073 -0.760465 0.188018 0.621565
-0.878848 -0.425381 -0.468415 -0.323391 -0.754633 0.570918
-0.892293 -0.422864 -0.442345 0.499496 -0.777917 0.381247
-0.981855 -0.417675 -0.492318 -0.842600 0.448869 0.297560
-0.915269 -0.387393 -0.425153 0.287291 -0.523308 -0.802254
-0.802916 -0.304110 -0.536767 -0.678920 0.726224 -0.108010
-1.032810 -0.442965 -0.626669 0.277671 -0.421023 -0.863503
-0.922661 -0.449452 -0.403767 0.718368 -0.493006 -0.490807
-0.896380 -0.369543 -0.439996 -0.171939 0.653437 -0.737195
-0.926612 -0.540203 -0.605770 0.276717 -0.515337 -0.811083
-0.829934 -0.572114 -0.355243 -0.640052 -0.427025 0.638735
-0.991188 -0.357862 -0.534060 -0.779002 0.059914 0.624153
-0.969336 -0.381928 -0.441956 -0.191415 -0.345338 0.918750
-1.034399 -0.400928 -0.502346 0.860285 -0.277329 -0.427784
-0.914426 -0.531365 -0.605771 0.730392 -0.577441 0.364814
-0.851199 -0.278834 -0.384160 -0.864900 0.393017 0.312227
-0.875925 -0.329511 -0.606870 -0.792879 0.592517 -0.142361
-0.938105 -0.356726 -0.560622 0.622963 -0.202764 -0.755516
-0.940760 -0.312368 -0.604219 -0.346854 0.314346 -0.883674
-0.987694 -0.323153 -0.540926 -0.763754 -0.146214 0.628730
-0.919648 -0.378924 -0.367299 -0.705199 -0.361772 0.609767
-0.872467 -0.512135 -0.564910 0.933000 -0.209239 -0.292797
-0.940346 -0.592053 -0.420529 -0.075028 -0.277753 0.957718
-0.829250 -0.528429 -0.604303 0.700012 -0.591734 0.399793
-0.905167 -0.397721 -0.641795 -0.424489 -0.081567 -0.901752
-0.963561 -0.536407 -0.557245 -0.527017 -0.109614 0.842756
-0.934857 -0.548608 -0.428818 0.688310 -0.013417 -0.725292
-1.009905 -0.347639 -0.556264 -0.897754 0.300826 0.321778
-0.990621 -0.492105 -0.518367 0.970661 -0.180275 -0.159115
-0.872084 -0.455521 -0.452707 -0.885680 0.417147 -0.203860
-0.892198 -0.526265 -0.535651 0.947257 -0.288318 -0.139921
-0.853670 -0.538035 -0.569863 0.062249 -0.146864 -0.987196
-0.863716 -0.509161 -0.420623 0.658595 -0.631277 0.409564
-0.860180 -0.568203 -0.461112 0.772151 0.139812 -0.619867
-0.876135 -0.686922 -0.493870 0.755613 -0.558047 -0.342975
-0.848150 -0.504756 -0.503011 -0.173650 -0.400094 0.899872
-0.966801 -0.399777 -0.387357 -0.914915 0.178664 0.361953
-0.858950 -0.649435 -0.562797 0.830861 0.214243 -0.513585
-0.846943 -0.314655 -0.642352 -0.921674 0.255026 -0.292368
-1.041146 -0.583883 -0.621639 0.811289 0.116052 -0.573011
-0.865925 -0.634126 -0.438160 0.567025 -0.738798 0.364225
-0.992896 -0.414962 -0.554289 -0.570363 0.029414 0.820866
-0.868563 -0.563651 -0.634117 0.563491 -0.219785 -0.796349
-1.076100 -0.371063 -0.473117 -0.839786 0.032679 0.541933
-0.908103 -0.591184 -0.585186 0.410262 -0.890417 0.197087
-1.045298 -0.671770 -0.583070 0.489350 -0.306214 -0.816559
-1.043687 -0.576015 -0.544615 0.373579 -0.912100 0.168857
-1.054621 -0.566065 -0.630117 0.072098 0.309610 -0.948126
-0.903781 -0.591514 -0.447661 -0.249145 -0.558036 0.791532
-1.064971 -0.503953 -0.483512 -0.866290 0.337053 -0.368696
-0.910650 -0.577404 -0.472052 0.163443 0.446048 -0.879959
-1.045264 -0.583506 -0.454680 -0.298441 -0.691987 0.657333
-1.008312 -0.508771 -0.601482 -0.125219 -0.097175 -0.987359
-1.069283 -0.600509 -0.669369 0.068013 0.269625 -0.960561
-1.095724 -0.590012 -0.544473 0.169048 0.466238 -0.868357
-0.882566 -0.468551 -0.410820 -0.705743 -0.059993 0.705923
-1.007984 -0.535024 -0.519627 -0.077166 -0.060534 -0.995179
-1.039948 -0.517789 -0.446320 -0.364741 -0.805265 0.467453
-0.988738 -0.611264 -0.434417 -0.360316 -0.785582 0.503024
-1.023459 -0.579014 -0.576108 -0.870075 0.215125 0.443498
-1.029147 -0.549047 -0.424845 -0.802519 0.462235 -0.377230
-1.063492 -0.635894 -0.603270 -0.810699 -0.172416 0.559500
-0.996080 -0.492731 -0.479214 -0.745641 0.086753 -0.660676
-0.993360 -0.417307 -0.594813 -0.789926 0.415206 -0.451244
-1.041086 -0.549760 -0.486042 -0.754942 -0.029759 -0.655116
-0.921732 -0.610529 -0.647282 -0.874665 -0.336044 0.349335
-0.941695 -0.479669 -0.498691 -0.783768 0.139694 -0.605138
-1.071592 -0.651728 -0.581594 -0.861213 -0.274784 0.427557
-1.039470 -0.601432 -0.515662 -0.875319 -0.371969 0.308959
-0.951027 -0.414138 -0.533362 -0.946578 0.142325 0.289369
-1.029533 -0.405142 -0.470494 -0.790701 0.312678 -0.526332
-1.084061 -0.581575 -0.479516 -0.993295 -0.043686 -0.107031
-1.079667 -0.546995 -0.668711 -0.983122 -0.120137 -0.137977
-0.953584 -0.631108 -0.478212 -0.992101 0.052081 0.114115
-0.893381 -0.659992 -0.562235 -0.998864 -0.032483 -0.034852
-0.371145 0.530962 -2.077482 -0.588828 -0.179560 -0.788061
-0.478972 0.416384 -1.885941 -0.471955 -0.296032 0.830435
-0.346904 0.565813 -2.045272 0.483408 0.112906 0.868084
-0.268933 0.584680 -1.884061 0.633123 0.243964 -0.734600
-0.732245 0.418067 -1.978068 0.601324 -0.291500 -0.743934
-0.803994 0.493230 -1.975574 -0.514146 0.275253 -0.812336
-0.880841 0.519271 -2.041876 -0.581661 0.281296 0.763245
-0.757928 0.496909 -1.961342 0.448294 -0.275179 0.850475
-0.496736 0.328697 -1.942501 -0.565240 -0.173096 -0.806562
-0.497194 0.395855 -1.870378 -0.437644 -0.474160 0.763964
-0.236263 0.537635 -1.984569 0.546198 -0.065116 0.835122
-0.438319 0.382939 -1.931855 0.666281 0.283652 -0.689646
-0.719865 0.352863 -1.915375 0.605618 -0.239215 -0.758948
-0.972454 0.552495 -1.916469 -0.574459 0.290833 -0.765123
-0.806044 0.588473 -1.897458 -0.626194 0.154763 0.764153
-0.865865 0.548085 -1.970369 0.472005 -0.364919 0.802524
-0.428981 0.418297 -2.082284 -0.486107 -0.240183 -0.840246
-0.427214 0.450958 -1.914401 -0.386535 -0.640016 0.664056
-0.287072 0.467828 -2.027111 0.570673 -0.190525 0.798769
-0.284230 0.353557 -2.125763 0.728953 0.297806 -0.616392
-0.299792 0.335391 -2.071545 -0.471372 -0.157089 -0.867832
-0.439657 0.342820 -1.912576 -0.301698 -0.782930 0.544058
-0.270777 0.310095 -1.897894 0.580739 -0.272759 0.767036
-0.408596 0.324960 -2.029749 0.677783 0.381800 -0.628362
-0.222524 0.337358 -2.018600 -0.424077 -0.477293 -0.769642
-0.266002 0.403784 -2.072502 -0.180809 -0.946252 0.268171
-0.315064 0.230954 -1.999607 0.808353 -0.288227 0.513313
-0.261233 0.351166 -2.020441 0.708290 0.350790 -0.612595
-0.756497 0.486015 -2.129238 0.610210 -0.293116 -0.736021
-0.856579 0.443111 -2.121607 -0.688024 0.223191 -0.690514
-0.821210 0.519113 -1.933118 -0.665711 -0.086815 0.741142
-0.892459 0.414929 -2.025442 0.407167 -0.517949 0.752292
-0.939106 0.361794 -2.040991 0.622860 -0.277022 -0.731645
-0.927103 0.327571 -1.942293 -0.764686 0.286418 -0.577252
-0.915719 0.272643 -1.901000 -0.679634 -0.272220 0.681171
-0.870487 0.424515 -1.990309 0.327187 -0.726416 0.604375
-0.967621 0.373762 -2.088866 0.388569 -0.267600 -0.881705
-0.998389 0.396962 -2.043578 -0.826520 0.161195 -0.539334
-0.882086 0.413299 -2.128694 -0.520995 -0.562748 0.641778
-0.856945 0.434992 -2.135471 0.100529 -0.874430 0.474621
-0.827748 -0.715010 -0.506653 -0.937515 -0.217543 0.271553
-0.824499 -0.782413 -0.401058 0.065935 -0.720126 0.690703
-0.978304 -0.757292 -0.538434 0.889559 -0.083442 -0.449135
-0.940928 -0.680378 -0.510254 -0.172501 0.183198 -0.967823
-0.856664 -0.787047 -0.543982 -0.821199 -0.567600 0.058840
-0.869915 -0.621124 -0.374587 0.157609 -0.973500 0.165703
-0.831168 -0.702118 -0.541182 0.685970 -0.339834 -0.643396
-0.783358 -0.670346 -0.426314 -0.329493 -0.297509 -0.896060
-0.774291 -0.498725 -0.484237 -0.416049 -0.354429 -0.837427
-0.669035 -0.607686 -0.273131 -0.860549 -0.241224 0.448628
-0.837024 -0.635230 -0.415118 0.422155 -0.179316 0.888612
-0.657115 -0.691266 -0.437010 0.850930 -0.256907 -0.458168
-0.784422 -0.512667 -0.337588 -0.388902 -0.277705 -0.878428
-0.684538 -0.548673 -0.353477 -0.786075 -0.495237 0.369900
-0.838632 -0.681280 -0.431513 0.514821 -0.488047 0.704818
-0.715856 -0.562435 -0.279273 0.787840 -0.250206 -0.562765
-0.730438 -0.690891 -0.459786 -0.441957 -0.384264 -0.810565
-0.673512 -0.579423 -0.410487 -0.468663 -0.810134 0.352190
-0.766337 -0.738277 -0.293186 0.573225 -0.711171 0.407000
-0.729004 -0.545141 -0.418367 0.742782 -0.336950 -0.578567
-0.858452 -0.505149 -0.569152 0.641392 -0.649007 -0.409154
-1.076034 -0.499828 -0.558539 0.080828 0.196137 -0.977240
-1.033450 -0.526835 -0.604970 -0.993108 0.099618 -0.061752
-1.074494 -0.528845 -0.504817 -0.235757 -0.713441 0.659864
-0.956402 -0.617705 -0.478584 0.752786 -0.567607 -0.333370
-0.980550 -0.502441 -0.478864 0.171245 0.144690 -0.974546
-1.039518 -0.518485 -0.498846 -0.976400 0.154937 -0.150458
-1.045226 -0.588397 -0.479955 -0.215963 -0.669155 0.711050
-0.970678 -0.645357 -0.682553 0.785154 -0.570520 -0.240914
-0.924171 -0.587443 -0.514717 0.067439 -0.363242 -0.929251
-1.025311 -0.558389 -0.656751 -0.784603 -0.329571 -0.525149
-0.955723 -0.635143 -0.482354 0.171919 -0.982458 0.072256
-0.897725 -0.679856 -0.597253 0.665843 -0.680435 -0.306041
0.900838 -0.597154 -0.569133 0.784608 -0.329610 -0.525116
0.894407 -0.503123 -0.670126 -0.067409 -0.363246 -0.929251
1.011014 -0.577627 -0.619073 -0.171224 0.144708 -0.974547
0.902543 -0.492262 -0.542244 0.976333 0.155308 -0.150513
1.035483 -0.674543 -0.483072 -0.171975 -0.982455 0.072155
0.893730 -0.649908 -0.651912 0.215834 -0.669440 0.710820
0.981064 -0.714487 -0.488743 -0.665789 -0.680448 -0.306131
0.955819 -0.699804 -0.551190 -0.785157 -0.570500 -0.240954
1.070872 -0.659339 -0.609438 -0.080822 0.196136 -0.977240
0.994522 -0.551139 -0.656437 0.993117 0.099486 -0.061813
1.021199 -0.638537 -0.459410 0.235776 -0.713427 0.659873
0.898722 -0.692998 -0.520912 -0.752789 -0.567603 -0.333371
0.960816 -0.476746 -0.511868 -0.641378 -0.649013 -0.409167
0.737492 -0.669460 -0.294607 0.468663 -0.810134 0.352190
0.744466 -0.535170 -0.332351 0.441957 -0.384264 -0.810565
0.651741 -0.654187 -0.482395 0.388913 -0.277717 -0.878419
0.828228 -0.548199 -0.427908 0.786098 -0.495227 0.369866
0.639480 -0.725999 -0.481275 -0.573295 -0.711131 0.406971
0.647687 -0.638513 -0.461951 -0.514816 -0.488030 0.704834
0.707195 -0.562008 -0.307570 -0.742782 -0.336950 -0.578567
0.722843 -0.639702 -0.480715 -0.787851 -0.250231 -0.562739
0.821402 -0.608923 -0.354456 0.416049 -0.354428 -0.837427
0.850873 -0.674752 -0.306712 0.860554 -0.241212 0.448625
0.786455 -0.482594 -0.302560 -0.422151 -0.179326 0.888612
0.732921 -0.614067 -0.480139 -0.850926 -0.256918 -0.458169
0.887260 -0.736824 -0.388203 -0.157637 -0.973494 0.165711
0.878091 -0.594648 -0.599398 0.821158 -0.567660 0.058836
0.856950 -0.544234 -0.489068 0.937514 -0.217525 0.271570
0.770086 -0.688708 -0.380858 -0.065942 -0.720136 0.690692
0.891120 -0.682017 -0.468727 -0.685931 -0.339852 -0.643428
0.879537 -0.571643 -0.521593 -0.889574 -0.083475 -0.449100
0.808028 -0.593504 -0.514931 0.329465 -0.297513 -0.896069
0.909288 -0.640478 -0.417097 0.172524 0.183182 -0.967822
0.856437 0.473097 -2.107422 0.838370 -0.034055 -0.544037
0.837301 0.485187 -2.090152 -0.237860 -0.312189 -0.919761
0.825747 0.392079 -1.911682 -0.502174 -0.259151 -0.825023
0.919907 0.534646 -1.963057 0.814624 0.106244 -0.570175
0.874325 0.505604 -2.057701 0.434778 -0.715765 0.546487
0.806533 0.443633 -1.896480 0.608122 -0.392021 0.690295
0.813817 0.340027 -1.941490 -0.076422 -0.986186 0.146959
0.909775 0.456000 -1.959782 -0.489546 -0.718573 0.493962
0.737248 0.449037 -2.097998 -0.584893 -0.254719 -0.770077
0.787269 0.553970 -2.097403 0.740108 0.041165 -0.671227
0.849342 0.489954 -1.944275 0.648888 -0.204669 0.732840
0.731621 0.468927 -2.037078 -0.494915 -0.494135 0.714766
0.815488 0.396150 -1.917658 -0.416211 -0.412980 -0.810072
0.960910 0.473157 -1.945312 0.643100 0.266593 -0.717879
0.814093 0.418550 -1.834701 0.645758 0.170612 0.744236
0.827523 0.486754 -1.931116 -0.386940 -0.448551 0.805655
0.227487 0.406064 -1.924215 0.310509 -0.935274 0.169842
0.219163 0.306708 -1.939841 0.472124 -0.474703 -0.742803
0.461751 0.322585 -2.000609 0.470601 -0.182265 -0.863316
0.344190 0.438839 -2.002810 0.380523 -0.798828 0.465915
0.418475 0.485717 -2.040992 -0.758687 -0.460151 0.461146
0.395496 0.436005 -1.875958 -0.553980 -0.362592 0.749422
0.301972 0.410948 -2.025984 -0.727988 0.201191 -0.655404
0.391953 0.490055 -2.013357 -0.709765 0.283667 -0.644800
0.321698 0.494306 -1.928387 0.472298 -0.302069 -0.828063
0.486749 0.389077 -1.937456 0.428964 -0.673078 0.602458
0.287260 0.510808 -1.850073 -0.558146 -0.251514 0.790705
0.418486 0.425936 -2.087797 -0.746502 0.226604 -0.625608
0.373815 0.568818 -2.118631 0.543640 -0.237255 -0.805088
0.472275 0.549715 -1.915216 0.454272 -0.517579 0.725085
0.308995 0.464520 -2.017993 -0.544513 -0.081587 0.834775
0.263640 0.470142 -2.023370 -0.675223 0.273122 -0.685185
0.328135 0.426887 -1.897202 0.560793 -0.255572 -0.787524
0.553272 0.409385 -1.988997 0.473752 -0.342859 0.811176
0.341650 0.543284 -1.876245 -0.479882 0.157095 0.863154
0.379345 0.441839 -2.021921 -0.626045 0.285652 -0.725583
0.838245 0.598069 -2.087377 -0.463013 -0.424719 -0.777967
0.929702 0.463759 -2.073881 0.421788 0.458357 -0.782307
0.811883 0.532176 -1.990058 0.601489 0.305391 0.738205
0.701804 0.484236 -1.987908 -0.419670 -0.293993 0.858746
-0.470096 0.484126 -1.900946 0.151076 -0.272870 -0.950115
-0.448851 0.516755 -1.994233 -0.493626 -0.403798 -0.770247
-0.345775 0.469503 -1.825911 -0.300300 -0.519110 0.800216
-0.398908 0.472743 -2.000990 0.539543 -0.090029 0.837131
-0.454522 0.543114 -1.890542 0.699249 0.047961 -0.713267
-0.891117 0.483755 -2.060689 -0.127956 -0.196460 -0.972127
-0.837377 0.577381 -1.948072 0.552426 -0.437266 -0.709664
-0.866874 0.579469 -1.954829 -0.698940 0.044709 -0.713782
-0.841905 0.689168 -2.023731 -0.640153 0.067669 0.765262
-0.704580 0.502750 -1.903838 0.289751 -0.382241 0.877460
-0.540019 0.553345 -2.044316 -0.892321 -0.429685 0.138324
-0.331718 0.419338 -2.035174 0.006382 0.111243 -0.993773
-0.539435 0.374526 -2.057679 -0.590991 -0.144023 -0.793717
-0.517830 0.571779 -1.990660 0.022700 -0.083694 0.996233
-0.396416 0.489260 -1.828664 -0.469686 -0.359552 0.806298
-0.393669 0.602845 -1.868146 0.933383 0.275435 0.230070
-0.326648 0.570154 -1.879628 0.515951 0.030615 0.856071
-0.359511 0.425778 -1.960824 0.643619 0.261019 -0.719460
-0.831348 0.425919 -1.893427 0.031810 0.072080 -0.996891
-0.829884 0.430140 -2.063988 0.842054 -0.506745 0.184810
-0.875514 0.444922 -2.081635 0.605187 -0.242476 -0.758257
-0.802324 0.650777 -1.903892 -0.889233 0.453948 -0.056541
-0.871326 0.572111 -2.030354 -0.546784 0.272844 -0.791570
-0.857968 0.524747 -2.029194 -0.046650 -0.006037 0.998893
-0.778137 0.596520 -1.964831 -0.609488 0.192877 0.768975
-0.863747 0.455413 -2.047427 0.471602 -0.307955 0.826290
-0.341451 0.330663 -1.900229 -0.831130 -0.551726 0.069437
-0.407080 0.396848 -2.059197 0.023810 0.179393 -0.983489
-0.305185 0.353745 -1.993101 -0.519306 -0.226716 -0.823967
-0.365504 0.521970 -1.990561 0.061227 -0.259085 0.963912
-0.435535 0.400017 -2.008434 -0.401568 -0.581706 0.707362
-0.378916 0.479226 -1.958269 0.959963 0.160697 0.229451
-0.381733 0.435173 -2.023285 0.566699 -0.149880 0.810178
-0.297494 0.363442 -1.965396 0.701824 0.294089 -0.648810
-0.955974 0.496510 -1.990305 0.031585 0.141222 -0.989474
-0.754301 0.452120 -1.908018 0.841766 -0.531252 0.095924
-0.899198 0.338639 -2.117918 0.605619 -0.266645 -0.749751
-0.960702 0.404008 -2.060329 -0.953223 0.301756 0.017558
-0.938487 0.375745 -1.982522 -0.618228 0.276479 -0.735767
-0.903219 0.603468 -1.916796 -0.047669 -0.083624 0.995357
-0.967654 0.501053 -1.977383 -0.649098 0.065189 0.757906
-0.902251 0.464956 -1.885357 0.435203 -0.449845 0.779896
-0.421958 0.372106 -1.980032 -0.750744 -0.659878 -0.030732
-0.452353 0.357900 -2.087646 0.075695 0.175033 -0.981648
-0.299261 0.469603 -1.907905 -0.476802 -0.204774 -0.854826
-0.424803 0.429377 -2.006924 0.113008 -0.424439 0.898377
-0.437479 0.262281 -1.960933 -0.357140 -0.693988 0.625165
-0.376975 0.463625 -1.933203 0.947683 0.104400 0.301658
-0.426770 0.468801 -1.950370 0.562083 -0.218158 0.797791
-0.257071 0.500780 -1.977624 0.723093 0.307477 -0.618542
-0.420419 0.411194 -1.996609 -0.658065 -0.741204 -0.132538
-0.301977 0.414148 -2.069732 0.045275 0.319163 -0.946618
-0.425141 0.240269 -2.143206 -0.462473 -0.171871 -0.869816
-0.264828 0.235747 -1.908965 0.156576 -0.553767 0.817818
-0.437549 0.324219 -1.979090 -0.294593 -0.872402 0.390039
-0.391321 0.418757 -1.902846 0.960308 0.097061 0.261512
-0.291923 0.236206 -2.102929 0.653278 -0.319336 0.686478
-0.373559 0.298863 -2.112158 0.698597 0.467433 -0.541728
-0.267167 0.362919 -2.072085 -0.418223 -0.817721 -0.395501
-0.361325 0.327812 -1.929914 -0.009842 0.043406 -0.999009
-0.322487 0.240422 -2.105229 0.470629 -0.679737 0.562553
-0.271716 0.329965 -2.056821 0.983324 -0.055403 0.173217
-0.954955 0.380529 -1.958290 -0.017715 0.114882 -0.993221
-0.838906 0.489824 -2.002624 0.785865 -0.611663 0.091016
-0.955021 0.286224 -1.979146 0.613868 -0.305519 -0.727890
-0.935146 0.354285 -1.866615 -0.988363 0.098508 0.115907
-0.980624 0.506084 -2.104416 -0.754889 0.196896 -0.625600
-0.935726 0.466529 -1.858960 -0.134093 -0.266836 0.954368
-0.890305 0.398747 -2.069997 -0.678219 -0.195860 0.708278
-0.815201 0.505513 -2.004663 0.394227 -0.597014 0.698684
-0.943163 0.438866 -1.983549 -0.027794 0.214595 -0.976308
-0.786390 0.389538 -2.100012 0.726041 -0.685951 0.048328
-0.853041 0.408024 -1.943226 0.614119 -0.243236 -0.750796
-0.966424 0.323922 -2.006516 -0.973354 0.029999 0.227337
-0.868325 0.254507 -1.977257 -0.699517 0.407447 -0.587080
-0.970084 0.327456 -1.933315 -0.208214 -0.528727 0.822858
-0.862559 0.312737 -2.115551 -0.632400 -0.404630 0.660564
-0.848480 0.261404 -2.123780 0.195191 -0.804862 0.560444
-0.972910 0.426514 -2.084340 -0.037989 -0.027528 -0.998899
-0.913587 0.310108 -1.930280 0.462040 -0.843956 -0.272502
-0.944178 0.433819 -1.929133 -0.865660 -0.360079 0.347816
-0.932447 0.418441 -1.993575 -0.321639 -0.711432 0.624831
-0.989023 -0.551787 -0.469863 -0.941476 -0.171701 0.290073
-0.923952 -0.623430 -0.427737 0.049826 -0.717289 0.694992
-0.951636 -0.567768 -0.385623 0.887246 -0.135153 -0.441054
-0.888236 -0.594339 -0.598936 -0.154031 0.116388 -0.981187
-0.861724 -0.689341 -0.501016 -0.659314 -0.433039 0.614639
-0.912420 -0.738410 -0.572656 -0.917441 0.008075 -0.397789
-0.816408 -0.667791 -0.463318 -0.912326 -0.384592 0.140536
-0.933291 -0.702879 -0.384357 0.845436 -0.510942 0.155486
-0.951265 -0.659133 -0.437246 0.081005 -0.837612 0.540226
-0.969652 -0.602801 -0.507205 0.563599 0.146987 -0.812866
-0.794535 -0.681848 -0.534918 0.840252 -0.194951 -0.505935
-0.992140 -0.551059 -0.534485 -0.225082 0.018617 -0.974162
-0.802478 -0.614597 -0.562164 -0.535885 -0.827856 0.165775
-0.993783 -0.743367 -0.571692 -0.729048 -0.523572 -0.440865
-0.767499 -0.721918 -0.559751 0.581182 -0.747319 -0.322090
-0.883743 -0.742196 -0.525025 0.329026 -0.327758 -0.885617
-0.765923 -0.497388 -0.283637 -0.406511 -0.380395 -0.830691
-0.773396 -0.517465 -0.428392 -0.894826 -0.113919 0.431636
-0.784638 -0.646798 -0.356561 0.396673 -0.132009 0.908419
-0.767161 -0.627804 -0.461291 0.878104 -0.279297 -0.388492
-0.644316 -0.506486 -0.396071 -0.920128 -0.286687 -0.266788
-0.622887 -0.626059 -0.303416 0.298226 -0.303020 -0.905119
-0.850096 -0.500969 -0.498798 -0.393073 -0.357359 -0.847224
-0.766055 -0.522807 -0.451441 -0.347140 -0.215636 0.912685
-0.742679 -0.522328 -0.265819 -0.811168 -0.415731 0.411307
-0.774043 -0.585094 -0.415601 0.938659 -0.177715 0.295527
-0.791302 -0.647048 -0.248439 0.460222 -0.344956 0.818047
-0.765584 -0.522249 -0.385848 0.811166 -0.280115 -0.513366
-0.688165 -0.728628 -0.277524 -0.852093 -0.405807 -0.330541
-0.814385 -0.549401 -0.291866 0.259600 -0.183824 -0.948059
-0.860598 -0.653153 -0.398562 -0.392844 -0.229162 -0.890594
-0.745337 -0.593942 -0.303749 -0.247878 -0.525261 0.814038
-0.797121 -0.624763 -0.390599 -0.719784 -0.607879 0.335252
-0.752484 -0.706182 -0.441114 0.942302 -0.314384 0.115020
-0.645984 -0.726723 -0.279051 0.515121 -0.589339 0.622358
-0.851480 -0.622882 -0.411662 0.804825 -0.192943 -0.561276
-0.660196 -0.520830 -0.282002 -0.605616 -0.697187 -0.383614
-0.772615 -0.556628 -0.382140 0.143038 -0.416414 -0.897853
-0.734566 -0.602038 -0.485431 0.037602 -0.845513 0.532630
-0.662159 -0.539798 -0.406842 0.799130 -0.601145 -0.003986
-0.880146 -0.451038 -0.547849 0.030132 0.177248 -0.983705
-1.082227 -0.661236 -0.595829 -0.995573 0.091848 -0.019981
-0.878640 -0.631335 -0.625294 -0.263823 -0.685205 0.678890
-0.894295 -0.520711 -0.565991 0.772048 -0.547731 -0.322387
-0.971000 -0.561335 -0.498720 -0.725872 0.293386 -0.622120
-1.019741 -0.570641 -0.594319 0.688338 -0.187582 -0.700717
-0.930370 -0.526396 -0.617935 0.133673 0.167950 -0.976691
-0.913620 -0.641457 -0.528867 -0.862542 -0.219697 0.455801
-1.011166 -0.644402 -0.583868 -0.986794 0.091897 -0.133391
-0.988234 -0.508560 -0.551282 0.528630 -0.822651 0.209275
-1.103077 -0.498976 -0.670960 -0.223474 -0.754178 0.617475
-0.898826 -0.593101 -0.474347 0.739799 -0.587637 -0.327690
-1.004615 -0.677939 -0.584700 -0.714515 0.289783 -0.636785
-0.987432 -0.708434 -0.524953 0.786924 -0.270909 -0.554400
-0.929906 -0.682850 -0.674447 0.127440 -0.119888 -0.984574
-0.916504 -0.638973 -0.522449 -0.912401 -0.065822 0.403969
-1.094565 -0.692123 -0.648358 -0.958640 0.126408 -0.255010
-0.984346 -0.510254 -0.579557 0.625660 -0.763799 0.158620
-0.883720 -0.499983 -0.653201 -0.134223 -0.841220 0.523768
-0.941699 -0.672877 -0.518779 0.780955 -0.588669 -0.208752
-0.948348 -0.703579 -0.647620 -0.317948 -0.393343 -0.862665
-0.951430 -0.494190 -0.611843 0.509220 -0.604614 -0.612484
-0.977858 -0.681018 -0.650173 -0.483264 -0.849017 -0.213602
-1.011005 -0.645729 -0.640367 0.483366 -0.852301 -0.199851
0.905364 -0.580303 -0.700887 0.317968 -0.393695 -0.862497
0.957360 -0.594562 -0.693013 0.958668 0.125506 -0.255351
0.924265 -0.696899 -0.676501 0.484083 -0.848590 -0.213444
0.914094 -0.568414 -0.614582 -0.127402 -0.119890 -0.984579
1.029575 -0.700493 -0.681659 -0.509174 -0.604640 -0.612497
0.911654 -0.563234 -0.593003 0.714593 0.289781 -0.636697
0.970833 -0.595062 -0.618459 -0.786932 -0.270876 -0.554405
1.057391 -0.613828 -0.648693 -0.133677 0.167928 -0.976694
1.073479 -0.597125 -0.638217 0.912435 -0.066213 0.403830
1.086383 -0.643037 -0.500494 0.986795 0.091859 -0.133404
1.049672 -0.694338 -0.691721 0.134517 -0.840938 0.524146
0.887363 -0.574515 -0.466490 -0.483280 -0.852322 -0.199971
1.078948 -0.717760 -0.670029 -0.625660 -0.763799 0.158620
1.034638 -0.576267 -0.456921 0.223361 -0.754162 0.617536
1.021446 -0.689791 -0.567817 -0.780972 -0.588647 -0.208753
0.981571 -0.485339 -0.474950 -0.739787 -0.587635 -0.327721
1.100174 -0.673800 -0.665248 0.725851 0.293394 -0.622142
0.881804 -0.501738 -0.577259 -0.688302 -0.187592 -0.700749
1.065601 -0.528735 -0.566920 -0.030142 0.177241 -0.983706
0.877024 -0.677723 -0.681442 0.862556 -0.219763 0.455743
0.975639 -0.491212 -0.535515 0.995567 0.091906 -0.019973
0.858240 -0.539910 -0.471884 -0.528630 -0.822651 0.209275
1.020530 -0.634204 -0.538889 0.263822 -0.685202 0.678893
0.995241 -0.674592 -0.558916 -0.772053 -0.547719 -0.322394
0.969717 -0.610982 -0.487186 -0.489342 -0.306211 -0.816565
0.779613 -0.651388 -0.322138 0.605616 -0.697187 -0.383614
0.671912 -0.699341 -0.464686 0.719786 -0.607885 0.335237
0.649259 -0.566124 -0.273756 -0.037602 -0.845513 0.532630
0.652776 -0.704098 -0.474033 0.392854 -0.229159 -0.890591
0.738096 -0.518261 -0.278922 -0.143038 -0.416414 -0.897853
0.640938 -0.589671 -0.382415 0.852088 -0.405808 -0.330553
0.830532 -0.515460 -0.445343 -0.259600 -0.183824 -0.948059
0.656802 -0.705052 -0.268780 0.393073 -0.357359 -0.847224
0.731197 -0.717790 -0.435883 0.247900 -0.525264 0.814029
0.828929 -0.635794 -0.430139 0.811176 -0.415733 0.411289
0.682626 -0.649332 -0.321881 -0.515169 -0.589351 0.622307
0.618406 -0.586833 -0.364252 -0.799155 -0.601112 -0.003948
0.663640 -0.589471 -0.364681 -0.942301 -0.314399 0.114983
0.697279 -0.584714 -0.321249 -0.460206 -0.344952 0.818057
0.821237 -0.647870 -0.431706 -0.804866 -0.192943 -0.561217
0.803243 -0.591170 -0.382283 -0.811169 -0.280104 -0.513368
0.800116 -0.603458 -0.386214 0.920128 -0.286687 -0.266788
0.640090 -0.511106 -0.449788 -0.298213 -0.303019 -0.905124
0.732799 -0.624147 -0.355533 0.406510 -0.380383 -0.830697
0.712274 -0.583583 -0.398442 0.347138 -0.215625 0.912689
0.772281 -0.479606 -0.317800 0.894826 -0.113919 0.431636
0.820439 -0.490951 -0.384884 -0.938654 -0.177729 0.295536
0.740440 -0.546385 -0.249012 -0.396671 -0.132010 0.908419
0.740377 -0.683771 -0.400593 -0.878105 -0.279299 -0.388489
0.919068 -0.764195 -0.428597 0.535886 -0.827858 0.165761
0.812271 -0.563423 -0.451686 -0.081009 -0.837614 0.540223
0.878600 -0.715883 -0.399486 -0.581199 -0.747310 -0.322081
0.799952 -0.695354 -0.408825 0.912305 -0.384636 0.140553
0.908801 -0.629879 -0.554226 0.729012 -0.523614 -0.440873
0.885393 -0.671207 -0.464633 0.659308 -0.433021 0.614658
0.785378 -0.647814 -0.377977 0.917438 0.008050 -0.397797
0.775249 -0.755690 -0.417822 0.941472 -0.171746 0.290058
0.789333 -0.605219 -0.574992 -0.845421 -0.510971 0.155476
0.797919 -0.733673 -0.454790 -0.049810 -0.717280 0.695002
0.850201 -0.651749 -0.394785 -0.840268 -0.194966 -0.505902
0.874407 -0.736514 -0.518673 -0.328996 -0.327759 -0.885627
0.757811 -0.653582 -0.608973 -0.563591 0.146980 -0.812873
0.904837 -0.753387 -0.383910 -0.887245 -0.135176 -0.441048
0.796621 -0.570351 -0.507197 0.225053 0.018626 -0.974168
0.993851 -0.612638 -0.391261 0.154018 0.116408 -0.981187
0.995006 0.483732 -2.092044 0.065207 -0.158601 -0.985187
0.872999 0.335697 -2.100734 0.772168 0.322850 -0.547288
0.836497 0.322410 -2.072902 0.764291 -0.558790 0.321891
0.860475 0.401683 -2.027821 -0.410521 -0.281921 -0.867175
0.978708 0.450720 -2.105383 -0.280628 -0.808975 -0.516534
0.801016 0.432072 -2.097258 0.069717 0.043326 -0.996625
0.738532 0.470062 -2.060748 -0.794465 -0.566103 -0.219893
0.771299 0.418172 -1.889291 -0.576835 -0.234445 -0.782494
0.832951 0.511357 -1.955255 0.943913 -0.120157 0.307557
0.783558 0.402248 -2.038472 0.783780 -0.034762 -0.620065
0.979857 0.383051 -1.903604 0.548738 -0.529328 0.647069
0.847474 0.326611 -1.913106 0.268247 -0.856430 0.441103
0.887873 0.488096 -1.878178 0.136630 -0.585551 0.799038
0.988308 0.531580 -2.006110 0.628765 -0.330782 0.703731
0.744675 0.420122 -1.962543 -0.233085 -0.910050 0.342755
0.814183 0.489071 -1.955341 -0.583880 -0.478750 0.655654
0.954631 0.577811 -1.953467 0.044099 -0.023099 -0.998760
0.906635 0.519574 -2.039573 -0.843463 -0.533339 -0.064191
0.897115 0.432318 -1.925225 -0.506459 -0.345101 -0.790192
0.888743 0.397371 -1.978630 0.987040 -0.078262 0.140096
0.826791 0.518804 -1.921014 0.690914 0.177577 -0.700789
0.891371 0.505204 -2.050757 0.099976 -0.289988 0.951794
0.810196 0.540630 -2.030946 0.663421 0.014492 0.748106
0.750140 0.415149 -1.949197 -0.380914 -0.539755 0.750713
0.768656 0.625683 -2.112615 0.008744 0.094397 -0.995496
0.907748 0.457778 -1.960335 -0.611510 -0.791231 0.003149
0.871143 0.494682 -2.048234 -0.425949 -0.409052 -0.806997
0.929752 0.569263 -1.960394 0.960026 0.276950 0.040604
0.900642 0.574141 -1.928925 0.589629 0.319532 -0.741779
0.866411 0.473889 -1.933038 0.075370 -0.055960 0.995584
0.856234 0.466081 -1.982123 0.621513 0.234937 0.747346
0.798880 0.414020 -1.969592 -0.417491 -0.345565 0.840408
0.281857 0.456351 -2.016692 0.494553 -0.770770 -0.401660
0.275503 0.343243 -2.023970 0.388488 -0.869583 0.304800
0.397697 0.467162 -2.112314 -0.345818 -0.811385 0.471236
0.435155 0.397658 -2.059224 0.469844 -0.183012 -0.863570
0.287498 0.431578 -2.125501 0.040757 -0.029368 -0.998737
0.335260 0.399287 -1.925193 0.678889 -0.714441 -0.169364
0.341776 0.323207 -1.984475 -0.063006 0.277076 -0.958780
0.307483 0.327086 -2.013314 0.470901 -0.253080 -0.845105
0.446642 0.484307 -1.868935 -0.087455 -0.621627 0.778416
0.296714 0.470268 -1.888084 0.415696 -0.717053 0.559492
0.340048 0.326548 -2.080770 -0.612680 -0.444266 0.653644
0.399403 0.313551 -2.121627 -0.959078 -0.258018 0.116605
0.292940 0.492013 -1.967083 -0.969225 -0.022399 0.245154
0.289263 0.306783 -2.039118 -0.545594 -0.286391 0.787596
0.261451 0.342284 -1.921313 -0.746321 0.370520 -0.552920
0.285575 0.448484 -1.992506 -0.743221 0.210696 -0.635004
0.460709 0.533262 -1.908965 0.737429 -0.671631 -0.071495
0.305269 0.460004 -2.013113 -0.073539 0.107334 -0.991500
0.499310 0.460606 -1.938108 0.497777 -0.292462 -0.816508
0.303178 0.424949 -2.038280 -0.074493 -0.477395 0.875525
0.416179 0.397839 -1.921640 0.430094 -0.624682 0.651761
0.221972 0.460153 -2.083648 -0.954020 0.035650 0.297615
0.343602 0.377679 -1.918803 -0.558942 -0.197040 0.805456
0.431654 0.581225 -1.997560 -0.715996 0.252931 -0.650673
0.358484 0.365932 -2.016399 0.796702 -0.603339 0.035328
0.456769 0.579766 -2.022406 -0.029106 0.157458 -0.987097
0.447184 0.532355 -2.019066 0.570234 -0.207555 -0.794830
0.372445 0.448385 -2.033129 -0.047022 -0.285367 0.957264
0.426775 0.444410 -1.981240 0.477630 -0.399901 0.782271
0.406114 0.605627 -2.066134 -0.961257 0.147145 0.233095
0.258418 0.500426 -2.043932 -0.515647 0.048115 0.855449
0.392746 0.436449 -1.903686 -0.644856 0.278748 -0.711660
0.377879 0.608939 -2.083386 0.848128 -0.517347 0.114157
0.317992 0.440193 -1.974499 -0.008839 0.107895 -0.994123
0.411689 0.615502 -1.992972 0.434002 -0.503035 -0.747394
0.332793 0.627353 -1.902204 -0.020672 -0.080648 0.996528
0.328899 0.611160 -1.845370 0.303670 -0.620046 0.723414
0.377343 0.495904 -1.885629 -0.911198 0.340911 0.231297
0.364924 0.662900 -2.023934 -0.536626 -0.114614 0.836000
0.328605 0.500119 -2.004181 -0.717320 -0.089556 -0.690965
0.800732 0.478297 -2.043900 -0.016187 0.127317 -0.991730
0.768009 0.523585 -1.850958 -0.773976 -0.614385 0.153272
0.681095 0.496662 -1.883162 -0.416154 -0.578482 -0.701551
0.895558 0.641612 -1.987706 0.900612 0.434599 -0.004653
0.886912 0.446352 -1.913563 0.556670 0.206393 -0.804686
0.828925 0.614506 -1.826710 0.055571 0.009805 0.998407
0.840851 0.469134 -1.951620 0.645226 -0.008397 0.763945
0.771024 0.485218 -2.020680 -0.275937 -0.467617 0.839758
0.323689 0.645834 -1.941644 -0.189962 -0.799233 -0.570212
0.819095 0.640521 -1.949387 0.203900 -0.679261 -0.705003
0.963985 -0.571919 -0.512960 0.641511 0.113076 -0.758734
1.108894 -0.497392 -0.525739 0.956533 -0.070247 0.283036
0.918054 -0.498952 -0.649216 -0.629195 -0.762856 0.148876
0.938839 -0.695210 -0.536699 -0.792497 -0.367888 -0.486422
0.935040 -0.699992 -0.572355 0.712837 0.282134 -0.642078
0.935149 -0.706703 -0.601456 0.889041 -0.226914 0.397638
1.016387 -0.561312 -0.474032 -0.562639 -0.819705 0.107335
0.917386 -0.513532 -0.648352 -0.721682 -0.246293 -0.646927
1.006894 -0.607669 -0.478158 0.741115 0.277939 -0.611145
1.031843 -0.590891 -0.538018 0.848072 -0.220953 0.481615
0.949677 -0.685512 -0.557412 -0.500497 -0.821361 0.273621
0.854982 -0.655524 -0.602191 -0.650836 -0.158444 -0.742501
0.739113 -0.570472 -0.337429 0.841200 -0.407894 -0.354971
0.659552 -0.606722 -0.429249 0.144079 -0.670269 0.727997
0.754488 -0.559955 -0.409037 -0.934900 -0.354019 0.025160
0.684764 -0.528551 -0.353753 -0.267683 -0.106865 -0.957562
0.680483 -0.592681 -0.312087 0.868555 -0.402018 -0.289817
0.638610 -0.502783 -0.376625 0.306620 -0.388124 0.869105
0.618578 -0.612358 -0.397326 -0.943418 -0.267438 0.196062
0.675935 -0.513425 -0.447283 -0.249353 -0.292593 -0.923153
0.778446 -0.619879 -0.433456 0.943894 -0.192631 -0.268249
0.683886 -0.642597 -0.337898 0.392249 -0.121169 0.911843
0.801199 -0.677140 -0.288238 -0.916581 -0.153592 0.369174
0.821528 -0.518561 -0.397839 -0.363408 -0.352965 -0.862178
0.870868 -0.707932 -0.519529 0.626323 -0.583994 0.516401
0.888414 -0.733159 -0.429258 -0.792225 -0.610031 0.015535
0.904481 -0.589650 -0.493041 -0.501474 0.072772 -0.862107
0.825542 -0.710409 -0.501685 0.869840 -0.207537 -0.447556
0.875573 -0.709703 -0.474612 0.687421 -0.375740 0.621508
0.894512 -0.599877 -0.542328 -0.833703 -0.520184 0.185331
0.753719 -0.546303 -0.426346 -0.589615 0.071005 -0.804557
0.891833 -0.595826 -0.570594 0.909489 0.049125 -0.412816
0.946837 -0.757771 -0.426920 0.115380 -0.846490 -0.519753
0.940369 -0.573702 -0.585017 -0.170853 -0.813476 -0.555938
0.631936 -0.663988 -0.338123 -0.228228 -0.961677 -0.151955
0.927530 0.375641 -2.026915 0.051168 0.192934 -0.979877
0.954045 0.466939 -2.088663 0.929355 -0.057216 0.364726
0.767796 0.401156 -2.009889 0.179049 -0.779693 0.600016
0.963566 0.505047 -2.090917 -0.562789 -0.762506 -0.319145
0.894386 0.448268 -1.913276 0.070940 -0.055550 -0.995933
0.888511 0.525235 -1.870494 0.950818 -0.203893 0.233180
0.745983 0.349557 -2.022980 0.100586 -0.405515 0.908537
0.890820 0.549132 -2.010937 -0.906234 -0.402689 -0.128770
0.959726 0.386209 -1.992057 0.016695 0.059319 -0.998099
0.817615 0.575621 -2.034970 0.987001 0.148097 0.062423
0.953680 0.433929 -1.860538 0.091368 -0.157031 0.983358
0.756340 0.528370 -1.998926 -0.650463 -0.758855 -0.032208
0.282917 0.306957 -1.921204 0.611456 -0.762925 -0.209920
0.266909 0.317626 -2.084930 -0.112539 -0.724387 0.680145
0.236496 0.312575 -1.978282 -0.990660 -0.021161 0.134704
0.399666 0.397015 -2.014373 -0.048349 0.369974 -0.927783
0.387329 0.376475 -1.938736 0.732343 -0.671559 -0.112617
