853
0.601511 1.225283 -1.293253 0.598830 -0.753696 0.270823
0.610080 1.225559 -1.806551 0.541912 0.541038 -0.643125
0.615842 1.205695 -0.995284 0.564171 -0.517415 -0.643422
0.612430 0.827368 -0.955427 0.541217 -0.438882 -0.717264
0.702930 0.914162 -0.852868 0.582208 -0.424259 -0.693570
0.640455 1.288930 -1.915923 0.591143 0.788370 -0.170360
0.684128 1.215194 -1.012978 0.432865 -0.506039 -0.746024
0.590426 0.081576 -0.060016 0.729554 -0.493165 0.473856
0.632029 0.878879 -1.909392 0.074285 -0.992888 -0.093032
0.609039 1.131291 -0.942069 0.483565 -0.569304 -0.664874
0.665395 1.294352 -1.246097 0.528858 -0.847922 0.036580
0.654731 0.170174 -0.125185 0.136734 0.933847 -0.330504
0.648141 1.195308 -1.708560 0.523260 0.768449 -0.368354
0.578752 -0.085030 -0.117157 0.531925 -0.822652 0.200746
0.519095 1.033383 -1.816352 0.186442 -0.498270 0.846739
0.576601 0.524719 -0.152833 0.670829 -0.738236 0.070683
0.664683 1.488313 -1.086610 0.741653 0.666347 0.077028
0.719578 1.034352 -0.942493 0.451320 -0.459286 -0.765092
0.556410 0.973537 -0.898424 0.434996 -0.516429 -0.737617
0.645030 1.353421 -1.179020 0.475768 -0.760334 -0.442196
0.716278 0.817843 -1.943788 0.040466 -0.680098 0.732004
0.484565 1.255012 -1.038189 0.409890 -0.567063 -0.714444
0.629987 1.517048 -1.127123 0.701633 0.685570 -0.194176
0.615840 1.199922 0.138788 0.836812 0.529009 0.141047
0.527854 1.489599 -1.105191 0.660557 0.712001 -0.238156
0.648274 0.111781 -0.067569 0.732346 0.491572 0.471198
0.624560 0.110956 -0.120644 0.624139 0.779191 -0.057549
0.595884 1.438226 -1.705841 0.368248 0.903332 -0.219966
0.589594 1.195519 -1.901860 0.076032 0.890428 -0.448728
0.558517 0.914784 0.264696 0.883520 -0.090245 0.459617
0.572362 1.397236 -1.703645 0.317323 0.711496 -0.626961
0.651830 1.391196 -1.526664 0.473217 0.864631 -0.168758
0.600263 1.147732 -1.970460 0.142577 0.520731 -0.841731
0.584280 1.124217 0.333100 0.912084 0.187463 0.364638
0.562821 1.425904 -1.406735 0.590373 0.779079 -0.210940
0.613001 -0.036506 -0.261186 -0.663486 -0.497571 -0.558757
0.680669 0.985325 -1.800238 0.174080 -0.674087 0.717846
0.567343 0.946286 -2.038633 0.025222 0.038601 -0.998936
0.536913 1.337842 -1.707588 0.237594 0.444636 -0.863625
0.605958 0.184962 -0.394256 -0.403884 0.688151 -0.602765
0.596633 1.199555 -1.628066 0.150069 -0.829265 0.538330
0.558515 1.196719 -1.869386 -0.026276 0.958872 -0.282622
0.495647 1.249981 -1.767709 0.203700 0.639776 -0.741076
0.573228 -0.054821 -0.379768 -0.743491 0.043191 -0.667350
0.597389 0.715392 -1.962306 0.846593 -0.511727 0.146342
0.509399 1.262399 -0.826502 -0.001879 0.579600 0.814899
0.588154 1.051264 -1.702708 0.156893 -0.941775 0.297397
0.654211 1.132467 -0.694045 0.002811 0.383624 0.923485
0.607183 0.070338 0.152753 0.789408 -0.129094 0.600141
0.620346 0.150388 -0.225963 -0.659043 0.346985 -0.667281
0.632087 1.292672 -1.830674 0.066952 0.877847 -0.474239
0.627096 -0.099687 -0.012697 0.324938 -0.844602 0.425513
0.627626 1.223661 -0.828518 -0.009707 0.834831 0.550421
0.511309 1.101741 -1.679757 0.181937 -0.902479 0.390424
0.621291 1.175829 -1.559447 0.188583 -0.833169 0.519870
0.688042 1.086510 -0.665348 -0.016293 0.892747 0.450263
0.631857 1.176044 -1.456728 0.171305 -0.876732 0.449439
0.544598 0.132289 -0.143407 0.299158 0.894444 -0.332378
0.623617 0.771084 -2.064197 0.619402 -0.410468 -0.669222
0.521575 1.526874 -1.475578 -0.087048 0.961297 -0.261400
0.659317 1.136703 -0.645073 -0.006389 0.928502 -0.371273
0.470942 1.387738 -1.189951 -0.018634 0.935691 -0.352327
0.589133 -0.135066 -0.228326 -0.105019 -0.991302 -0.079317
0.524318 0.117133 -0.034959 0.524009 0.807861 0.269767
0.600500 0.591424 -0.525000 -0.065263 -0.883573 -0.463724
0.561845 0.753017 0.382510 0.839241 -0.368458 0.399893
0.554629 1.183688 -0.405132 0.057844 0.870358 -0.489009
0.491491 1.217575 -0.296195 0.117977 0.917473 -0.379901
0.555673 1.261414 -1.406488 0.119927 -0.932932 0.339494
0.638114 1.274993 -0.944478 -0.065624 0.870040 0.488594
0.609204 1.025490 -1.960262 -0.036105 0.059636 -0.997567
0.554252 0.680980 -0.851325 -0.000796 -0.804207 -0.594348
0.555235 0.547736 0.130065 0.636662 -0.763781 0.106302
0.600357 1.208683 -0.224472 0.124273 0.973690 -0.191010
0.610304 1.446891 -0.977657 0.004954 0.787087 0.616822
0.612590 1.386748 -1.582625 -0.137919 0.972166 -0.189398
0.545915 1.278081 0.200781 0.852063 0.507929 0.126478
0.466526 0.143835 0.091653 0.684445 0.524279 0.506622
0.632020 1.451041 -1.031321 -0.003257 0.633463 0.773766
0.557722 0.869292 -1.795831 0.098255 -0.322788 0.941357
0.613047 0.832092 -0.853187 -0.018321 -0.654611 -0.755744
0.624778 1.597385 -1.109982 0.047684 0.954315 -0.294973
0.594269 1.237014 -1.130430 0.039161 -0.998260 0.044080
0.522980 0.516193 -0.469084 0.109587 -0.949138 -0.295175
0.521081 0.897781 -0.838201 -0.016791 -0.484500 -0.874630
0.592273 0.858229 -0.830578 0.053794 -0.464384 -0.883999
0.587685 1.271738 -0.232070 0.231364 0.967831 -0.098862
0.498764 1.162092 -0.986852 0.045517 -0.604803 -0.795074
0.492289 1.097222 -0.921261 -0.016041 -0.613534 -0.789505
0.478456 0.971337 -0.862663 -0.086681 -0.525981 -0.846068
0.414997 0.740042 -1.858462 0.492136 -0.415093 0.765180
0.515398 0.893210 -1.988603 -0.046661 -0.022505 -0.998657
0.445287 1.087625 -0.849713 -0.166283 -0.573157 -0.802397
0.590430 1.100959 -1.923640 -0.241296 0.509452 -0.825975
0.530022 1.545641 -1.072025 -0.026185 0.627341 0.778304
0.538625 0.594787 -1.902771 0.900921 -0.386656 0.197076
0.456494 1.491872 -1.010179 -0.001372 0.956042 0.293228
0.606064 1.227468 -1.150003 -0.025061 -0.851416 -0.523892
0.622726 1.188229 -0.959308 -0.039336 -0.590144 -0.806339
0.623526 1.202908 -1.958336 -0.445414 0.791068 -0.419306
0.487598 1.282122 -1.769897 -0.319177 0.798834 -0.509892
0.505337 1.352423 -1.634070 -0.197257 0.959805 -0.199660
0.587984 1.146724 -1.792356 -0.457987 0.833165 -0.309974
0.530571 1.444965 -1.327401 -0.650292 0.734658 -0.193385
0.585981 1.319369 -1.726879 -0.140159 0.619499 -0.772384
0.574343 -0.084711 0.033898 0.338621 -0.801180 0.493402
0.485237 0.127261 -0.062464 -0.155004 0.737654 -0.657145
0.596046 1.254511 -1.176853 -0.042982 -0.609596 -0.791546
0.547580 0.642495 -2.011418 0.664829 -0.264571 -0.698573
0.498097 0.042626 0.191394 0.937376 -0.173542 0.302010
0.574385 1.463446 -1.161870 -0.588361 0.726269 -0.355478
0.479335 0.636377 -0.316407 0.131461 -0.975788 -0.174801
0.543742 -0.161182 -0.094900 -0.580375 -0.616820 -0.531694
0.495619 1.285539 -0.113927 0.516298 0.852434 -0.082416
0.578871 1.427944 -1.671544 -0.057561 0.449165 -0.891593
0.551572 1.347779 -1.694823 -0.148991 0.763394 -0.628515
0.462569 0.083469 0.180116 0.985829 -0.080781 0.147022
0.465389 0.052742 -0.028734 0.427151 0.816072 0.389318
0.568698 1.041518 0.606005 0.836210 0.165416 0.522868
0.672753 1.029749 -1.716923 -0.539021 -0.751281 0.380831
0.536351 1.132615 -1.796280 -0.488166 -0.565418 0.664828
0.579907 0.159590 0.141947 0.844295 0.469348 0.258608
0.638185 1.355831 -1.564348 -0.687739 0.724313 -0.048852
0.498394 0.913286 0.490494 0.768785 -0.101658 0.631376
0.521560 0.303367 -0.005566 0.250535 0.968103 -0.002836
0.510432 0.543545 -1.988088 0.887927 -0.413271 0.201972
0.559511 -0.060692 -0.179623 -0.243137 -0.969660 0.025393
0.631312 0.148543 -0.199886 -0.509993 0.385623 -0.768896
0.553324 0.020960 0.298957 0.941796 -0.067393 0.329360
0.493176 -0.048478 -0.252088 -0.634742 0.043900 -0.771476
0.504016 0.696948 -1.975254 0.515512 -0.292754 0.805322
0.561004 1.246254 -1.813932 -0.676886 0.600259 -0.426046
0.566110 1.047003 -1.663230 -0.477549 -0.875972 0.067968
0.496009 1.266700 -1.449191 -0.435149 -0.793178 0.426045
0.488140 0.120144 0.199621 0.910640 0.408479 -0.062283
0.484166 1.172201 -1.302452 -0.465603 -0.833267 0.298128
0.522255 1.406068 -1.348815 -0.887373 0.446200 -0.116081
0.539000 0.065917 0.029214 0.583974 -0.758702 0.288698
0.598862 1.429232 -1.211556 -0.873404 0.405001 -0.270443
0.501729 0.666334 -2.035884 0.649443 -0.301280 -0.698179
0.499999 1.567428 -1.043900 -0.590180 0.697789 -0.405929
0.608390 1.083867 -1.586970 -0.450543 -0.753379 0.478990
0.442434 1.225720 -1.814164 -0.581204 0.410537 -0.702611
0.503358 0.525269 0.169041 0.664413 -0.740967 0.097585
0.431231 0.594324 -0.218503 0.084136 -0.992529 -0.088358
0.473701 1.018594 -0.917841 -0.648603 -0.422765 -0.632917
0.433736 0.114864 0.112767 0.873375 0.486168 0.029262
0.549135 1.202761 -1.583445 -0.475385 -0.847496 0.236133
0.425467 1.357441 0.406701 0.870906 0.451593 0.193874
0.485594 1.207777 -1.827088 -0.756702 0.617813 -0.213796
0.454211 0.875552 -0.851092 -0.607479 -0.360078 -0.708035
0.444780 1.257503 -1.236642 -0.533453 -0.845813 -0.005222
0.602528 -0.053831 0.101236 0.746306 -0.662276 0.066467
0.438262 1.175466 -1.889622 -0.491939 0.422109 -0.761459
0.487802 0.680545 -1.800207 0.023752 -0.238724 0.970797
0.474334 0.856812 -0.841941 -0.672209 -0.351959 -0.651352
0.528758 0.902094 -1.862248 -0.485752 -0.270844 0.831077
0.439322 1.051458 -0.996593 -0.689406 -0.457746 -0.561416
0.484385 1.123838 -1.703086 -0.944169 -0.329351 0.008527
0.582279 1.173165 -1.941446 -0.941830 0.283060 -0.181200
0.459166 0.777302 -1.966745 -0.006389 -0.016550 -0.999843
0.552053 1.106771 -0.759742 -0.525354 0.351675 0.774808
0.480605 1.196433 -1.650500 -0.907464 0.050991 -0.417024
0.515485 1.047426 -0.914716 -0.623363 -0.524979 -0.579497
0.520723 1.283263 -1.597089 -0.913534 0.403749 0.049420
0.388685 0.612856 -2.000736 0.783645 -0.596247 0.174327
0.505061 1.069015 -1.778012 -0.945477 -0.156483 0.285633
0.485488 0.098291 -0.057702 -0.149312 0.817607 -0.556081
0.422220 1.193014 -0.715673 -0.510804 0.515678 0.687863
0.512353 1.225307 -1.644534 -0.970922 -0.126688 -0.203128
0.551413 0.663534 0.444656 0.700719 -0.337991 0.628295
0.438595 0.814133 -0.835970 -0.702839 -0.452921 -0.548525
0.550187 1.315589 0.088532 0.680340 0.710650 -0.179204
0.453806 0.221979 0.091098 0.536187 0.827165 0.168231
0.423890 1.111727 -1.766926 -0.997117 0.066968 0.035689
0.531621 1.088595 -2.007021 -0.750043 0.577371 -0.322612
0.522412 0.090569 -0.057687 0.253988 0.881738 0.397528
0.547687 1.334720 -1.453001 -0.982073 0.184192 -0.040085
0.483561 1.061666 -0.639285 -0.515823 0.681222 0.519484
0.471777 1.195475 -1.012272 -0.543334 -0.575748 -0.610985
0.547363 1.327574 -1.663245 -0.677679 0.735353 0.002711
0.428286 1.236647 -1.307567 -0.948041 -0.297453 0.112871
0.441396 1.279575 -1.258466 -0.964805 0.187614 -0.184263
0.480478 0.758350 -2.014399 0.489465 -0.273284 0.828094
0.467956 1.324083 -1.190456 -0.512844 -0.692952 -0.506763
0.482734 1.351169 -1.551683 -0.930452 -0.297873 0.213381
0.423460 1.147032 -1.864026 -0.945651 0.324249 -0.024618
0.484469 1.263155 -1.134860 -0.963970 -0.246654 -0.099615
0.550217 1.364973 -0.877702 -0.569027 0.649126 0.504821
0.435982 1.289892 -1.706514 -0.537177 0.257492 -0.803205
0.400355 1.235845 -1.748407 -0.844954 -0.455945 -0.279582
0.448847 1.485981 -0.973935 -0.589103 0.522535 0.616372
0.487648 1.563886 -1.064802 -0.714586 0.695239 0.077521
0.489082 0.764049 -0.736737 -0.687368 -0.553476 -0.470307
0.536659 0.531024 -1.973628 0.575367 -0.422091 -0.700566
0.501079 1.389001 -1.520010 -0.987680 0.135698 0.077937
0.506096 1.457260 -1.114568 -0.845137 0.326748 -0.423059
0.534685 0.987814 -2.007313 -0.616448 0.258177 -0.743866
0.479350 -0.091560 0.222488 0.764708 -0.632748 0.121871
0.432879 1.235055 -0.269601 -0.543591 0.794297 -0.271294
0.440723 1.347332 -0.957402 -0.598114 0.669781 0.440061
0.484790 0.931291 -1.912046 -0.965731 -0.006090 0.259473
0.492405 0.505477 -1.989300 0.446690 -0.884222 0.136452
0.507829 1.521399 -1.043972 -0.632392 0.492456 0.597969
0.443416 -0.005347 -0.053442 -0.186215 -0.942319 0.278134
0.434706 1.353470 -0.874581 -0.678367 0.633237 0.372597
0.447875 1.038026 -1.923859 -0.986489 0.117414 0.114253
0.495913 1.186964 -1.157125 -0.573384 -0.548068 -0.608977
0.489545 1.004311 -0.547675 -0.448732 0.852925 -0.266754
0.523036 1.218659 -0.315729 -0.640046 0.737132 -0.216743
0.441555 1.221236 -1.122058 -0.514440 -0.514885 -0.685744
0.399004 0.141633 0.241777 0.764495 0.615847 -0.190473
0.482269 1.171580 -1.566879 -0.911001 -0.312228 0.269425
0.417737 1.215206 -1.700302 -0.855686 -0.289312 -0.429068
0.496662 1.359717 -1.686949 -0.687725 0.573482 -0.445144
0.500232 0.956810 -1.962791 -0.852085 -0.092122 -0.515233
0.425724 0.584327 -0.090316 0.086160 -0.989473 -0.116275
0.466636 -0.079212 -0.212081 -0.634643 -0.655040 -0.410062
0.470778 1.420373 -1.223661 -0.928950 0.133988 -0.345107
0.443915 0.612416 -0.657670 -0.666769 -0.611022 -0.426698
0.482780 0.107465 0.098676 0.468023 0.843828 0.262505
0.468408 -0.007563 0.372690 0.791762 0.002700 0.610824
0.457207 1.249174 -1.667420 -0.812186 -0.100667 -0.574648
0.510605 1.169855 -1.606026 -0.900743 -0.433463 -0.027777
0.438544 0.859568 -1.948879 -0.642848 0.153131 -0.750532
0.509040 1.011544 -0.806919 -0.933628 -0.201825 -0.295980
0.457699 1.187752 -0.502188 -0.621656 0.714877 -0.320146
0.470552 1.071304 -0.540319 -0.593389 0.698437 -0.400094
0.468996 1.029052 -0.819653 -0.942956 -0.145928 -0.299230
0.482873 0.289623 0.275157 0.796940 0.546081 0.258228
0.566197 0.564177 -1.850291 0.390122 -0.812018 -0.434086
0.440140 1.316245 -1.283150 -0.906134 -0.200225 -0.372602
0.561215 0.598921 -1.926223 0.337232 -0.938515 0.073921
0.417378 1.101692 -0.884629 -0.920446 -0.256168 -0.295224
0.392320 1.143693 -1.951563 -0.931244 0.348398 -0.106786
0.478325 0.094157 -0.132262 -0.627157 0.378585 -0.680696
0.487866 0.751413 -1.977957 0.022719 -0.004744 -0.999731
0.469811 0.540697 -1.913086 0.377398 -0.484992 0.788894
0.482497 1.273607 -1.603622 -0.927122 0.328048 0.181191
0.509334 1.080950 -0.947910 -0.913209 -0.280047 -0.296013
0.544232 1.140944 -1.084962 -0.924178 -0.282846 -0.256696
0.407403 1.166069 -0.233312 -0.006655 0.911923 -0.410308
0.561129 1.223116 -1.601408 -0.981894 0.035984 0.185983
0.416162 1.163566 -0.978202 -0.950146 -0.262469 -0.168321
0.435492 0.749933 -1.956583 -0.037749 -0.122819 0.991711
0.468047 0.288313 -0.067755 -0.114405 0.993396 -0.008697
0.382703 0.867058 -0.668778 -0.954221 -0.107548 -0.279097
0.413215 1.099719 -0.730626 -0.924108 0.190604 0.331201
0.406614 0.973685 -1.952079 -0.986392 0.005609 0.164317
0.390849 0.253403 -0.075374 -0.460682 0.801011 -0.382301
0.407342 0.127148 0.020941 0.186848 0.938375 0.290760
0.402850 1.440608 -1.002648 -0.970765 0.191384 0.144871
0.431481 0.557510 -2.053527 0.231724 -0.738412 -0.633287
0.438207 0.114791 0.218878 0.510841 0.797802 -0.320238
0.421786 0.933199 -1.912706 -0.996730 0.071518 -0.037613
0.354646 1.262969 -1.021688 -0.998974 -0.019409 -0.040912
0.554051 1.073127 -0.704378 -0.927754 0.372282 0.026047
0.367082 1.522408 -1.091287 -0.957270 0.237571 -0.164906
0.520389 0.031104 -0.192221 -0.765744 -0.065693 -0.639781
0.525748 1.009291 -0.808282 -0.999061 -0.022146 -0.037238
0.428925 1.045047 -0.684719 -0.895443 0.201118 0.397157
0.389230 1.225948 -1.018536 -0.961389 -0.224696 -0.158881
0.530093 1.388734 -1.114787 -0.998329 -0.008575 0.057154
0.485223 1.375389 -0.941862 -0.966602 0.146165 0.210515
0.395706 0.564435 -1.887647 0.089627 -0.821939 0.562479
0.458672 1.258084 -1.636386 -0.974900 -0.178687 -0.132822
0.363415 0.538397 -0.562620 -0.661448 -0.659216 -0.357660
0.554611 1.289346 -1.042554 -0.918542 -0.191275 -0.345969
0.488229 1.415144 -1.088604 -0.982866 0.043872 -0.179022
0.376583 1.278464 -1.050334 -0.985463 -0.054098 -0.161050
0.538990 1.018484 -0.665152 -0.990400 0.038310 -0.132813
0.356998 1.101048 -0.727740 -0.997416 -0.069900 0.016570
0.387395 1.280409 -0.942600 -0.969981 0.242320 0.020449
0.479913 0.838335 -1.936380 -0.639385 0.079735 0.764741
0.496072 1.471997 0.332839 0.895824 0.442690 0.039041
0.456378 1.279784 -1.716150 -0.967817 0.110736 -0.225983
0.562826 0.809117 -1.969215 -0.970146 0.181701 0.160628
0.427383 0.477202 0.323735 0.829833 -0.504031 0.239437
0.414250 0.482447 -1.971428 0.033426 -0.890371 0.454007
0.468984 1.491877 0.070956 0.812436 0.541136 -0.217072
0.379585 1.031357 -1.952787 -0.863951 -0.008664 -0.503501
0.428738 0.065054 0.066296 0.023915 -0.994332 0.103595
0.470533 0.841457 -0.703841 -0.960361 -0.116509 -0.253242
0.422338 1.232241 -0.779569 -0.947367 0.208996 0.242522
0.444843 1.183979 -0.993617 -0.979120 -0.112244 -0.169483
0.406806 0.158226 0.017502 0.470733 0.881879 -0.026467
0.513695 1.138094 -0.978695 -0.991883 -0.109053 -0.065389
0.435818 1.371282 -0.927792 -0.986776 0.156506 0.042172
0.530860 0.967139 -0.554918 -0.913885 0.346649 -0.211301
0.395582 0.629863 -0.466949 -0.715019 -0.628697 -0.305757
0.407802 1.096639 -0.342600 -0.937832 0.291105 -0.189023
0.423996 1.025149 -0.658461 -0.983330 0.036803 -0.178069
0.468945 0.537190 -1.968567 0.013688 -0.023127 -0.999639
0.411791 1.099777 -0.410484 -0.971105 0.238234 -0.014154
0.380755 0.569305 -1.954353 -0.061735 -0.089883 0.994037
0.355344 -0.082166 0.372270 0.729687 -0.604315 0.319937
0.445314 0.153326 -0.032119 -0.812127 0.366531 -0.453987
0.359571 0.753093 -0.615109 -0.951299 -0.187444 -0.244733
0.471808 0.807475 -1.971524 -0.611422 0.299632 -0.732382
0.475540 1.124490 -0.286209 -0.652047 0.483987 -0.583602
0.470707 1.317818 -0.132876 0.343781 0.732022 -0.588183
0.454346 0.423158 -0.002705 0.302059 -0.935376 -0.183938
0.408246 1.041985 -0.574647 -0.967785 0.247468 -0.046376
0.462222 -0.067821 -0.073957 -0.723535 -0.635558 -0.269374
0.410985 1.039763 -0.455037 -0.969335 0.204638 -0.136060
0.446304 -0.045994 0.140139 0.310364 -0.929449 -0.199497
0.495385 0.297544 0.251228 0.535384 0.763866 -0.360379
0.457210 1.134327 0.709181 0.615407 0.031684 0.787573
0.512046 0.985133 -0.532971 -0.990498 0.015127 -0.136695
0.381383 0.639170 -0.346083 -0.649016 -0.692850 -0.314224
0.327398 0.731402 -1.853744 -0.924402 0.370370 0.091146
0.400598 0.246789 0.353436 0.985535 0.115281 0.124225
0.478179 0.867126 0.550570 0.569512 -0.167631 0.804709
0.489551 0.918833 -0.480875 -0.998062 0.040467 -0.047279
0.463670 0.848686 -0.421311 -0.997128 0.074526 -0.013488
0.342061 0.582699 -1.945652 -0.150485 -0.307090 0.939708
0.310486 0.767357 -0.497002 -0.975166 -0.134078 -0.176277
0.425017 1.310620 0.511264 0.700603 0.277130 0.657536
0.461742 0.368680 0.337992 0.965997 -0.160514 0.202693
0.379274 1.013764 -0.332234 -0.979095 0.106169 -0.173494
0.489361 0.539851 -1.991704 -0.015579 -0.129446 -0.991464
0.403111 0.091923 -0.118290 -0.860275 0.026138 -0.509160
0.342791 0.160513 0.068268 -0.396440 0.882930 -0.251537
0.424277 0.613196 -1.877088 -0.275664 -0.707648 0.650572
0.352176 0.618509 -1.948080 -0.612234 0.137363 0.778654
0.381904 1.529576 0.264118 0.938689 0.343949 -0.023704
0.366372 0.542139 -2.036766 -0.246639 -0.773043 0.584443
0.416812 1.359007 0.144699 0.908196 0.335292 -0.250516
0.456495 0.897754 -0.403082 -0.987806 -0.051382 -0.146968
0.395442 0.521146 -2.093344 -0.153755 -0.759768 -0.631753
0.419019 1.052412 -0.394103 -0.825759 0.167981 -0.538428
0.341915 0.732307 0.460228 0.579834 -0.327270 0.746115
0.416496 0.722997 -0.419516 -0.936275 -0.084112 -0.341049
0.429754 1.375803 0.592354 0.767155 0.451712 0.455445
0.438602 0.550504 -0.231578 -0.604520 -0.706016 -0.368914
0.410363 0.118136 0.487667 0.662812 0.063182 0.746115
0.312288 0.324379 0.250986 0.891821 -0.373890 -0.254679
0.465163 -0.105288 0.172103 0.472151 -0.832091 -0.291029
0.380578 0.739619 -1.982477 -0.606073 0.271111 -0.747779
0.445446 0.517708 0.056755 0.551711 -0.808438 -0.205043
0.413286 1.143596 -0.125189 -0.085520 0.432371 -0.897631
0.282011 -0.087455 0.020760 -0.656980 -0.612831 -0.439108
0.395081 0.661846 -0.393479 -0.833730 -0.101250 -0.542810
0.469741 0.514398 0.398809 0.721929 -0.256820 0.642543
0.323052 0.729909 -1.917658 -0.923602 0.367861 0.107882
0.389288 0.738611 -1.904246 -0.610174 0.118509 0.783354
0.399035 0.093696 -0.003386 -0.725593 0.212759 -0.654407
0.357843 0.284311 0.230885 0.853805 0.379387 -0.356487
0.308957 0.949595 -0.301282 -0.327802 0.150151 -0.932738
0.363128 1.528304 0.129531 0.936803 0.228923 -0.264563
0.425127 1.542042 0.401384 0.837559 0.438116 0.326418
0.391033 0.604926 -1.999678 -0.500595 -0.662758 0.556917
0.346845 0.182170 0.025082 -0.007637 0.698632 -0.715441
0.409924 1.692478 0.183158 0.955205 0.292222 -0.046794
0.388536 0.579293 -1.831343 -0.579271 -0.589215 0.563267
0.416407 0.538452 -1.835756 -0.633143 -0.126800 0.763578
0.399550 0.579983 -1.993476 -0.617181 0.215464 -0.756745
0.355357 0.377020 0.035247 0.936978 -0.203981 -0.283662
0.376325 0.264366 0.408064 0.749765 -0.115172 0.651605
0.399790 0.611594 -0.183327 -0.200501 -0.764443 -0.612720
0.348028 1.411457 -0.197687 0.758026 0.413608 -0.504307
0.307234 0.812404 -0.331313 -0.479191 -0.204819 -0.853478
0.394614 -0.168026 0.395589 0.716551 -0.403237 0.569170
0.319153 0.708592 -1.967605 -0.942565 0.309588 0.125405
0.323682 0.470861 -1.944801 -0.710536 -0.676970 -0.191965
0.365713 1.127541 -0.354884 0.605289 0.226925 -0.762975
0.236697 -0.037421 -0.036913 -0.131829 -0.729712 -0.670926
0.408072 -0.208690 0.326163 0.534706 -0.826357 -0.176704
0.335758 0.608322 -1.948588 -0.679577 0.042312 -0.732383
0.377738 0.558802 -1.891894 -0.817330 -0.506913 0.273881
0.321018 0.552627 -2.042262 -0.672570 -0.472459 -0.569589
0.273076 0.185348 0.404665 0.619533 -0.021491 0.784677
0.347242 0.973265 -0.279798 0.540809 -0.006235 -0.841122
0.300295 1.627422 -0.001110 0.948592 0.179990 -0.260340
0.261141 0.644759 -1.943991 -0.856925 -0.489687 0.160894
0.319246 0.150687 0.087523 -0.172911 0.081699 -0.981543
0.423772 1.708882 0.323930 0.867867 0.422232 0.261776
0.277340 1.473438 -0.049563 0.901995 0.257458 -0.346584
0.287269 0.654142 -1.920556 -0.985693 0.053834 0.159725
0.281045 1.882028 0.119077 0.963077 0.265242 -0.046153
0.355162 0.191603 0.068097 0.621191 0.277341 -0.732942
0.365530 0.428942 -0.043256 0.951756 -0.060740 -0.300785
0.307677 0.779932 -0.229189 0.464094 -0.328484 -0.822627
0.247923 0.021406 0.114883 0.306057 -0.673734 -0.672616
0.236257 0.096893 0.506478 0.478438 -0.013577 0.878016
0.391439 1.459481 -0.186694 0.921883 0.187496 -0.339082
0.229685 1.199522 -0.451698 0.846164 0.137421 -0.514900
0.238276 0.553339 -0.205622 0.737807 -0.519456 -0.431051
0.257867 0.959202 -0.374547 0.874113 -0.033426 -0.484570
0.291701 1.725626 -0.082313 0.955901 0.122871 -0.266752
0.323353 1.295652 -0.358715 0.847510 0.229214 -0.478735
0.262826 1.912767 0.282330 0.858212 0.461734 0.224218
0.324934 0.038670 0.140510 0.471871 -0.190024 -0.860946
0.303897 1.009664 0.737599 0.338466 -0.185947 0.922423
0.256885 1.260319 0.661790 0.451227 0.163733 0.877260
0.206571 1.223646 0.732720 0.380798 -0.023086 0.924370
0.300971 -0.255167 0.295392 0.595749 -0.802001 -0.043334
0.291749 1.793783 0.058991 0.968665 0.245974 -0.034418
0.314695 1.634982 -0.199800 0.923884 0.164612 -0.345459
0.241486 0.832140 0.629655 0.357662 -0.276248 0.892057
0.317415 1.509973 0.670723 0.543573 0.366524 0.755108
0.353970 -0.078088 0.483042 0.812668 -0.394459 0.428921
0.293943 0.147149 -0.123118 0.908581 -0.161227 -0.385339
0.356662 1.455538 -0.201494 0.858589 0.243509 -0.451142
0.290507 0.013763 0.479212 0.556754 0.001539 0.830676
0.359569 0.638395 -0.413645 0.882600 -0.166774 -0.439549
0.197265 -0.685020 1.746593 0.994591 -0.006434 -0.103666
0.291170 -0.794290 1.738445 0.931771 0.026206 0.362099
0.253162 1.906520 -0.126510 0.958313 0.026906 -0.284451
0.296062 -0.799596 1.812707 0.925017 -0.043169 -0.377465
0.204983 0.645262 0.606778 0.418490 -0.238863 0.876248
0.203250 0.407351 -0.138352 0.944153 -0.179022 -0.276634
0.245997 1.637621 0.541017 0.618883 0.469121 0.630008
0.205940 -0.904897 1.753705 0.989163 -0.117021 -0.088668
0.265877 -0.734710 1.772609 0.959318 0.210432 0.188222
0.239067 -0.078450 0.193882 0.518187 -0.674126 -0.526343
0.283378 -0.747200 1.819023 0.900265 -0.053792 -0.432006
0.232135 -0.888868 1.650474 0.867492 -0.106443 -0.485930
0.218751 1.443480 -0.286667 0.846620 0.223536 -0.482976
0.249540 -0.559122 1.726480 0.974106 0.157801 -0.161916
0.278794 -0.953167 1.822684 0.900298 -0.102290 0.423083
0.325955 -0.626510 1.749863 0.925895 0.057338 -0.373404
0.251436 2.007487 0.066462 0.840459 0.505109 0.196196
0.237183 2.044182 -0.174510 0.972750 0.230669 -0.023437
0.275181 1.599198 -0.289431 0.860315 0.184831 -0.475074
0.241920 -0.867936 1.726542 0.851614 -0.146569 -0.503260
0.184917 -0.801731 1.798453 0.937238 -0.017278 -0.348263
0.223086 -0.745165 1.865711 0.609622 -0.001342 0.792691
0.290047 0.418468 0.525389 0.398708 -0.164847 0.902140
0.137743 0.061455 0.030092 0.754545 -0.365261 -0.545203
0.261400 0.453881 -0.287099 0.901850 -0.194200 -0.385945
0.306787 -0.652553 1.740181 0.598387 0.079701 0.797233
0.292385 -0.064256 0.468455 0.723185 0.113325 0.681294
0.271775 -0.887886 1.697594 0.940313 -0.323043 0.107025
0.287255 -1.082744 1.784794 0.831276 -0.285927 -0.476683
0.219479 1.787333 0.426603 0.645453 0.532174 0.547889
0.234125 -0.913239 1.821229 0.600963 -0.059049 0.797092
0.261868 -0.936975 1.797477 0.933912 -0.127544 -0.333976
0.223997 -0.091353 0.583079 0.919010 -0.259663 0.296642
0.305731 2.043417 -0.263287 0.946069 -0.065155 -0.317346
0.215097 -0.152696 0.280132 0.686176 -0.727390 0.008094
0.229477 0.476230 -0.246450 0.899205 -0.201717 -0.388254
0.290642 1.143433 -0.436416 0.642933 0.146498 -0.751782
0.317127 -1.057706 1.784934 0.793009 -0.258127 0.551822
0.232764 -0.985442 1.789903 0.735864 -0.284508 -0.614459
0.304440 0.836203 -0.470531 0.643962 -0.019739 -0.764803
0.187734 -0.551208 1.814411 0.958384 0.282628 0.040263
0.220191 1.716347 -0.178821 0.808763 0.136688 -0.572030
0.233853 -0.743932 1.752466 -0.158198 0.007268 0.987381
0.226461 -0.723612 1.572007 0.937908 0.028580 -0.345706
0.190846 -0.573178 1.597391 0.917622 0.138463 -0.372557
0.161315 2.037912 -0.005615 0.829045 0.521979 0.200554
0.220813 0.296165 0.500283 0.311204 -0.084356 0.946592
0.315470 1.230573 -0.390880 0.639377 0.245623 -0.728606
0.291934 2.196418 -0.322177 0.973115 0.229021 -0.024425
0.246069 -0.613439 1.836666 -0.150756 -0.023100 0.988301
0.283124 -0.605404 1.808622 0.683269 0.188329 0.705462
0.221320 -0.878922 1.813980 -0.187951 0.064336 0.980069
0.243703 -0.477729 1.722988 0.909581 0.254123 -0.328762
0.223802 -0.158106 0.525364 0.871652 0.265580 0.411934
0.242056 -0.857671 1.692168 0.941151 -0.136939 -0.309001
0.182885 -0.058443 1.711577 0.997331 0.064393 0.034421
0.260794 -1.025175 1.796917 0.870502 -0.316812 -0.376638
0.137418 0.181850 -0.157769 0.808923 -0.366803 -0.459455
0.165910 -0.747436 1.776515 -0.744894 0.019639 0.666893
0.257579 -0.928167 1.839075 0.527836 -0.139515 0.837809
0.222805 1.965266 0.305472 0.633603 0.629547 0.449687
0.220368 -0.254057 0.585355 0.965972 -0.182040 0.183737
0.143013 -0.102497 1.797409 0.996929 -0.077555 0.010813
0.176372 0.616820 -0.487364 0.670944 -0.193698 -0.715762
0.282944 1.432093 -0.334008 0.619811 0.310268 -0.720810
0.215155 2.191811 -0.287917 0.917607 -0.134641 -0.373991
0.095685 -0.052359 1.591113 0.988430 -0.015706 -0.150863
0.215760 -0.027936 1.624135 0.972475 0.094737 -0.212876
0.273461 -0.660992 1.869677 -0.679489 -0.081467 0.729149
0.289421 -0.079920 1.796917 0.972484 0.064918 0.223742
0.219571 -0.104043 1.779869 0.975529 -0.098996 0.196323
0.213735 1.624928 -0.311647 0.596358 0.286598 -0.749812
0.178531 -0.939303 1.812385 -0.786584 0.154446 0.597856
0.254691 -0.000239 1.660567 0.931929 0.359687 -0.046195
0.156037 1.647800 -0.364554 0.618683 0.290412 -0.729995
0.142850 1.881611 -0.112226 0.795768 -0.114901 -0.594602
0.187021 -0.158093 1.732422 0.994182 -0.067008 -0.084332
0.264864 -0.157872 1.722014 0.990735 -0.129071 0.042240
0.166453 0.118173 0.473941 0.278118 0.044132 0.959533
0.228128 -0.609766 1.777787 -0.138965 -0.042600 0.989381
0.169829 -0.296504 0.467417 0.758204 -0.651145 0.033711
0.309618 -0.689181 1.777471 -0.182711 0.003059 0.983162
0.239644 -0.126564 1.651826 0.998184 -0.060229 -0.000767
0.147043 -0.464474 1.733443 0.977310 0.207418 0.042937
0.270654 -0.095416 0.577528 0.927607 0.284319 0.242299
0.139263 -0.155897 1.777253 0.961691 -0.160462 0.222268
0.125733 2.134826 -0.163880 0.812503 0.538488 0.223317
0.242604 -0.754344 1.530653 0.819827 0.101747 -0.563499
0.182032 -0.257535 1.684731 0.990244 -0.098050 0.099006
0.153125 -0.001361 1.551789 0.889636 0.054334 -0.453427
0.267090 -0.238883 1.656500 0.883675 -0.124773 -0.451165
0.140609 -0.071926 1.612472 0.854480 -0.116039 -0.506358
0.341010 -0.239563 1.686875 0.891288 -0.130105 -0.434371
0.200790 -0.089189 1.677364 0.987645 -0.115173 0.106270
0.176296 -0.211248 1.755400 0.990588 -0.098990 0.094529
0.317967 -0.922527 1.744218 -0.257326 0.076157 0.963319
0.248513 -0.174121 0.160243 0.469468 -0.794332 -0.385534
0.168042 2.252443 -0.438778 0.968606 0.245596 -0.038531
0.258825 -0.625217 1.827023 -0.013512 -0.005117 0.999896
0.186394 0.013357 1.650678 0.796170 0.451776 -0.402506
0.244141 -0.110382 1.819433 0.969892 -0.141194 0.198429
0.262383 0.050955 1.761568 0.936429 0.283509 0.206695
0.204907 -0.934293 1.864217 -0.235030 0.156549 0.959298
0.204092 0.506987 -0.387249 0.715041 -0.270682 -0.644552
0.245254 -0.131210 1.667738 0.885212 -0.135042 -0.445155
0.197945 -1.013061 1.559880 0.853796 -0.399719 -0.333551
0.256817 -0.683775 1.588343 0.771780 0.254797 -0.582609
0.148100 0.063522 -0.047640 0.581893 -0.608827 -0.539194
0.193014 -0.295866 1.705485 0.994095 -0.101288 0.038925
0.243655 -0.274083 1.815478 0.996522 -0.057354 0.060444
0.246323 -0.481613 1.797100 0.715055 0.178377 0.675927
0.158618 -1.016728 1.745424 0.638353 -0.586256 -0.498808
0.185504 -1.055855 1.711821 0.726365 -0.678930 0.106997
0.217883 -0.913565 1.756701 0.796350 -0.035519 0.603792
0.220777 -0.240358 1.766856 0.998884 -0.023091 0.041192
0.251702 -0.947373 1.549252 0.815553 -0.157988 -0.556699
0.243980 -0.244879 1.646120 0.839197 -0.108430 -0.532909
0.125211 0.294246 -0.307504 0.662501 -0.383251 -0.643592
0.174520 2.028952 0.188643 0.618630 0.694121 0.368094
0.198406 -0.120566 0.846481 0.967917 -0.168899 0.186036
0.174316 -0.362978 1.684806 0.883272 -0.119633 -0.453341
0.145185 -0.443350 1.717187 0.945821 0.106634 -0.306679
0.171753 -0.026086 1.865138 0.879460 -0.160892 0.447955
0.131593 -0.472404 1.797516 -0.582258 -0.154165 0.798253
0.120709 -0.039177 1.889193 0.874373 0.016329 0.484979
0.161343 -0.430253 1.810422 0.947226 0.076881 0.311210
0.247091 0.018726 0.546584 0.351800 0.197189 0.915070
0.177808 -0.400296 1.655981 0.987296 -0.022138 -0.157340
0.268585 2.019183 -0.227341 0.751894 -0.252282 -0.609106
0.202894 -0.169770 1.857733 0.837535 -0.239068 0.491306
0.211450 -1.095364 1.747401 0.512368 -0.516073 -0.686402
0.244067 -0.671968 1.685681 0.801159 0.091519 0.591412
0.134203 2.185239 -0.437555 0.877359 -0.187609 -0.441638
0.254808 -0.209476 1.801356 0.887289 -0.229238 0.400209
0.194001 -0.080356 0.780333 0.945171 0.250357 0.209696
0.170960 -0.157145 1.736681 0.760188 -0.252390 0.598676
0.195688 -0.357805 1.610066 0.876905 -0.162760 -0.452268
0.221208 -0.932693 1.823026 -0.671889 0.360014 0.647268
0.197688 -0.276491 0.606688 0.817002 -0.574535 0.049161
0.166033 -1.062490 1.875131 0.613587 -0.546977 0.569497
0.254779 -0.235727 1.761288 0.879049 0.010276 0.476620
0.130939 -0.045057 1.539640 0.751616 0.012184 -0.659489
0.194778 -0.091246 1.585343 0.659333 0.411308 -0.629369
0.113813 -0.348007 1.702137 0.903933 -0.114656 0.412017
0.201247 -0.618644 1.663105 0.698719 0.275292 -0.660308
0.194185 -0.266792 1.733071 0.902272 -0.075960 0.424424
0.181553 -0.305474 1.805754 0.935194 -0.071394 0.346866
0.228710 -0.164465 1.544175 0.687381 -0.199466 -0.698370
0.132351 2.271537 -0.397068 0.780734 0.571200 0.253347
0.095889 -0.459825 1.829897 -0.037305 -0.043861 0.998341
0.257351 -0.466337 1.782747 0.137424 -0.005162 0.990499
0.361987 -0.768431 1.802245 0.776652 0.012053 0.629815
0.155800 -0.179817 1.611628 0.640582 -0.200318 -0.741302
0.199626 0.059472 1.789591 0.833355 0.242196 0.496851
0.211639 -1.014291 1.715487 0.716013 -0.215039 0.664142
0.223291 0.003003 0.521382 0.522483 0.454157 0.721632
0.138452 -0.802067 1.545890 0.384939 0.255541 -0.886860
0.151652 -0.385064 1.761507 0.650790 0.082204 0.754794
0.195821 -0.334198 1.566890 0.784655 -0.092307 -0.613022
0.139048 2.117703 0.037340 0.618607 0.708845 0.338915
0.220277 -0.317826 1.534114 0.459847 -0.287627 -0.840126
0.243934 -1.127790 1.661498 0.634837 -0.628970 -0.448753
0.259875 -0.031092 1.694058 0.505529 0.831405 -0.230666
0.116731 -0.210607 1.867784 0.638327 -0.290562 0.712820
0.251350 -0.750465 1.716885 0.760758 0.075200 0.644664
0.137050 2.311083 -0.613570 0.961993 0.265171 -0.065220
0.123623 -0.290082 1.541569 0.356909 -0.094672 -0.929329
0.203656 -0.929156 1.785143 0.903830 -0.253312 0.344854
0.152850 -0.217107 0.748961 0.847375 -0.518330 0.115279
0.134961 -0.981518 1.701487 0.377576 -0.273959 0.884524
0.194187 -0.857012 1.591895 0.682247 -0.480427 -0.551116
0.134713 2.202533 -0.448421 0.687851 -0.344930 -0.638658
0.174119 -0.705201 1.599585 0.338494 0.330488 -0.881022
0.180229 0.098172 1.752185 0.673133 0.632252 0.383601
0.161547 -0.131052 1.564102 0.345854 -0.063251 -0.936154
0.175898 -0.545874 1.787325 0.843723 0.160552 0.512206
0.184363 -0.577143 1.609335 0.736598 0.123276 -0.665001
0.152076 -0.271930 1.688240 0.336553 -0.075505 -0.938632
0.247055 -0.287192 0.123861 0.487037 -0.844710 -0.221945
0.137114 0.026583 1.575470 0.885498 0.019970 -0.464213
0.239399 0.072490 0.560029 0.633270 0.652751 0.415795
0.153272 -0.111024 0.902763 0.958278 0.221936 0.180133
0.138625 -0.268666 0.900113 0.966955 -0.166683 0.192910
0.197215 -0.411705 1.709219 -0.503588 -0.203766 0.839571
-0.002560 -0.940216 1.750324 -0.214448 0.257594 0.942156
0.126336 -0.053071 1.545108 0.602873 0.460657 -0.651413
0.254043 0.096424 1.829690 0.657222 0.746524 0.103738
0.190239 -0.826741 1.459508 0.447637 0.010383 -0.894155
0.197930 0.030687 1.755943 0.447914 0.700937 -0.555033
0.102579 -0.393375 1.611777 0.335932 -0.142309 -0.931074
0.137796 -0.026266 1.620452 0.446921 0.548502 -0.706687
0.140364 -0.031464 1.904496 0.801700 0.005007 0.597706
0.115889 2.349902 -0.573882 0.842867 -0.211942 -0.494627
0.163188 -0.152079 0.648321 0.675770 0.681843 0.280044
0.147231 -0.215118 1.777901 0.658990 -0.221989 0.718647
0.092129 -0.235589 1.798065 0.622926 -0.262899 0.736782
0.074561 -0.036091 1.897198 0.728663 -0.339396 0.594862
0.105797 -0.300766 1.859816 0.580347 -0.054281 0.812558
0.091386 -0.101651 1.457806 0.856912 -0.241905 -0.455174
0.122013 -0.982468 1.625372 0.608489 -0.695405 -0.382300
0.087371 -0.237513 1.803237 0.683141 -0.133397 0.718000
0.148879 -0.169309 1.789892 0.580662 -0.350341 0.734910
0.136962 -0.226670 1.747577 0.715997 -0.156258 0.680391
0.135282 -0.968063 1.809546 -0.196345 0.345606 0.917608
0.182596 2.173658 -0.196667 0.611792 0.711165 0.346345
0.149253 -0.365098 1.787452 0.586771 -0.276077 0.761237
0.143046 -0.105888 1.514715 0.981049 0.076341 -0.178088
0.052124 -0.332213 1.791825 0.358599 -0.007694 0.933460
0.153526 -0.088074 0.761717 0.700169 0.677720 0.224631
0.275044 -0.432969 1.764284 -0.107699 -0.133520 0.985177
0.183194 -0.592390 1.562349 0.326029 0.251924 -0.911175
0.192463 0.018472 1.890794 0.766841 0.268829 0.582826
0.080977 2.313426 -0.525290 0.737869 0.611179 0.286374
0.170940 -0.008614 1.519208 0.676806 0.548652 -0.490830
0.114348 -0.521985 1.802361 0.772642 0.110935 0.625075
0.177399 -0.235057 1.521568 0.789466 -0.319681 -0.523973
0.072051 2.148355 -0.549925 0.619892 -0.409977 -0.669069
0.215516 -0.057516 0.947280 0.970733 0.214451 0.108112
0.083515 -0.333248 1.622220 0.320654 -0.106342 -0.941208
0.118659 -0.274542 0.912288 0.879532 -0.443932 0.171314
0.225904 -1.084660 1.887452 -0.372896 0.556941 0.742136
0.181895 -0.105135 1.436961 0.986315 0.126790 -0.105390
0.085671 -0.270827 0.299489 0.526847 -0.838534 -0.138899
0.234320 -0.088366 1.429503 0.966546 -0.229489 -0.114556
0.096666 -0.255490 1.013612 0.977857 -0.163708 0.130368
0.177241 0.832797 0.605103 0.160037 -0.250942 0.954681
0.176275 1.430090 0.715282 0.241373 0.304084 0.921560
0.274797 1.021368 0.698798 0.139761 -0.188685 0.972042
0.206400 1.328786 0.754803 0.195246 0.104418 0.975180
0.143906 1.123298 0.721975 0.158892 -0.060586 0.985435
0.129858 2.401152 -0.544891 0.956889 0.279906 -0.077570
-0.010076 0.044198 1.564790 0.327112 0.636523 -0.698453
0.199580 -0.879992 1.910383 0.666264 0.050871 0.743979
0.060598 -0.534806 1.780421 0.879564 0.160223 0.447992
0.126714 -0.064327 1.399530 0.982852 0.174248 -0.060322
0.193105 1.686607 0.540334 0.298587 0.478209 0.825931
0.162279 0.566451 0.628610 0.166760 -0.245617 0.954916
0.157246 -0.241545 1.785775 0.650875 -0.254156 0.715379
0.111128 -0.018370 1.418164 0.716525 0.635737 -0.287108
0.102182 -0.081753 1.085202 0.977060 0.211295 0.026609
0.130921 -0.241446 1.817211 0.665143 -0.253448 0.702388
0.188265 -0.041882 0.862688 0.708012 0.685691 0.168960
0.105923 -0.115601 1.268277 0.979198 0.201747 -0.021660
0.150355 -0.965552 1.794144 0.791826 -0.606446 0.072358
0.118971 -0.373067 1.836220 -0.284875 -0.227611 0.931150
0.095490 -0.148378 1.468590 0.976074 -0.215469 -0.029211
0.089769 -0.481111 1.591715 0.296093 0.068111 -0.952728
0.141254 -0.967186 1.620981 0.553453 -0.661767 -0.505720
0.164746 -0.038297 1.854519 0.877141 -0.293920 0.379783
0.057977 0.040199 1.869313 0.934544 -0.023411 0.355077
0.099534 -0.657220 1.700502 0.609941 0.063779 0.789876
0.172778 -0.136265 1.960308 0.981884 -0.137525 -0.130344
0.101491 -0.728731 1.608618 0.128912 0.291513 -0.947841
0.164682 2.371729 -0.602922 0.836430 -0.218646 -0.502572
0.182922 -0.936294 1.852485 0.727640 -0.049223 0.684191
0.082134 -0.074680 1.963406 0.879164 0.082645 0.469298
0.173800 -0.113834 1.163339 0.983797 -0.170700 0.054824
0.131215 -0.124663 1.929882 0.892261 -0.307775 -0.330372
0.156871 -0.114292 1.295446 0.980280 -0.197532 0.005614
0.078929 -0.068329 2.046687 0.943214 -0.254920 -0.212986
0.154451 -0.101176 1.847244 0.824738 -0.423395 0.374891
0.109229 -0.204852 1.300171 0.982900 -0.182693 0.023028
0.151495 2.278198 -0.371434 0.581713 0.725093 0.368579
0.094343 0.023744 1.878616 0.983281 0.174601 0.051694
0.057332 -0.336083 0.614342 0.559216 -0.826647 -0.062711
0.122185 -0.178882 1.579430 0.922501 -0.368117 -0.116110
0.092995 -1.091780 1.634664 -0.044566 0.271228 0.961483
0.154267 -0.127967 2.071728 0.942291 -0.141060 0.303627
0.110393 -0.074478 1.901001 0.739306 -0.362288 -0.567604
0.182953 -0.049062 1.932034 0.924880 -0.155078 -0.347199
0.146574 -0.305747 1.765582 -0.024666 -0.228175 0.973308
0.110338 -0.090467 1.982409 0.742345 -0.504921 -0.440430
0.143329 -0.947420 1.820067 0.763202 -0.217499 0.608454
0.150419 -0.001070 1.892628 0.917735 -0.376755 -0.125773
0.173835 -0.032556 1.963170 0.949264 0.214130 0.230319
0.134043 -0.157261 1.848089 0.647654 -0.186419 0.738778
-0.030085 -0.146731 1.934596 0.918204 -0.146069 0.368191
0.175481 -0.142591 1.414697 0.700532 0.680203 -0.215821
0.175654 -0.082203 2.024820 0.950819 -0.029081 -0.308379
0.145541 -0.098979 2.050566 0.817600 -0.086112 -0.569311
0.100035 0.867375 -0.594169 0.280262 -0.022407 -0.959662
0.115678 -0.055887 1.997473 0.881179 -0.300755 -0.364789
0.110652 0.029941 1.946800 0.950312 -0.310210 0.026021
0.156170 1.719440 0.489654 0.319610 0.603471 0.730528
0.115077 1.094531 -0.478411 0.298546 0.144167 -0.943444
0.084968 0.451973 0.554418 0.139562 -0.201146 0.969568
0.121119 -0.419170 1.751723 0.654072 -0.000878 0.756432
0.090639 -0.651483 1.527859 0.092336 0.315431 -0.944445
0.116567 0.119569 1.865801 0.760580 0.237538 0.604230
0.047975 -0.169544 1.831380 0.476319 -0.506245 0.718913
0.138946 -0.002268 1.958746 0.798100 0.301438 0.521701
0.092407 -0.094544 2.025585 0.891606 -0.342277 0.296455
0.230924 0.143561 1.868369 0.584960 0.660084 0.471287
0.194513 -0.924097 1.828317 0.790301 -0.409014 0.456215
0.160159 0.038850 1.958247 0.987246 -0.159204 -0.000277
0.085624 -0.217769 1.893451 0.929524 -0.181370 0.321075
0.112368 -0.082612 1.922483 0.893555 0.023999 -0.448312
0.101146 -0.087188 1.945349 0.955876 -0.102087 -0.275461
0.183984 -0.234037 1.701334 0.501233 -0.690031 -0.522133
0.206889 -0.296706 1.736776 0.172784 -0.457169 0.872434
0.165338 -0.251733 1.472238 0.928585 -0.371092 -0.004538
0.175882 -0.128925 1.960520 0.948215 -0.041858 -0.314859
0.224641 -0.441998 1.785255 0.775525 0.088236 0.625121
0.142245 -0.972000 1.472522 0.436789 -0.391532 -0.809888
0.072318 -0.109917 1.016809 0.910088 -0.391890 0.134769
0.109518 -0.184088 0.885947 0.696629 0.711685 0.090621
0.136213 -0.084481 1.825024 0.964575 -0.240319 0.108817
0.024453 2.383803 -0.649644 0.583896 -0.449427 -0.676077
0.117760 2.375448 -0.728784 0.703088 0.643450 0.302720
0.158447 -0.166694 1.193527 0.680852 0.717300 -0.148055
0.126140 -0.318458 0.719387 0.590442 -0.806306 0.035355
0.114047 -0.126752 1.995400 0.975450 -0.108107 -0.191861
0.109615 2.431323 -0.668730 0.927080 0.333085 -0.171981
0.188964 1.191015 -0.516154 0.287139 0.272817 -0.918217
0.153641 -0.214641 1.544009 0.129051 -0.240096 -0.962133
0.115349 -0.275235 1.244696 0.929557 -0.366628 0.038839
0.079584 -0.135026 1.918879 0.854886 -0.019652 -0.518443
0.265691 -0.291978 1.867152 0.735722 -0.254957 0.627463
0.074545 -0.111436 1.880733 0.777021 -0.604563 0.175336
0.154233 -0.144223 1.278799 0.672442 0.736880 -0.069500
0.137282 -0.192229 1.601563 0.058413 -0.037170 -0.997600
0.108493 -0.266114 1.813745 0.574228 -0.459654 0.677481
0.150208 -0.133600 1.938998 0.942083 -0.232661 0.241553
0.040305 -0.322432 1.623643 0.049052 -0.091169 -0.994627
0.116351 -0.057610 1.197955 0.680722 0.732522 0.005452
0.100976 -0.121915 1.269623 0.928454 -0.367838 0.051658
0.139493 -0.488693 1.858309 0.904439 0.142325 0.402161
0.184329 -0.195635 1.834757 0.902176 -0.095464 -0.420671
0.176595 1.738977 -0.248029 0.467152 -0.023089 -0.883875
0.088551 -0.620482 1.867314 0.585852 0.038751 0.809491
0.178425 -0.120248 1.169797 0.924546 -0.373931 0.073421
0.042757 -0.179831 1.773989 0.527394 -0.145874 0.837004
0.098918 -0.776713 1.567622 0.176761 0.108825 -0.978219
0.137357 0.590144 -0.581286 0.281126 -0.192703 -0.940124
0.031810 -0.320065 1.888231 0.179761 -0.249085 0.951653
0.014067 -0.265766 1.818430 0.784078 -0.185631 0.592252
0.017606 1.508492 -0.308003 0.376642 0.237029 -0.895521
0.044600 1.366592 -0.487203 0.267979 0.354733 -0.895741
0.093362 -0.333278 1.623008 0.024934 -0.105581 -0.994098
0.211920 -0.110611 1.896072 0.709094 -0.536744 -0.457265
0.127033 -0.033983 1.875094 0.814959 0.278742 0.508079
0.074849 2.461267 -0.628009 0.809340 -0.158184 -0.565639
0.151414 -0.012883 2.055711 0.411708 0.162668 0.896680
0.134296 1.936150 0.351020 0.325901 0.725660 0.605975
0.180138 -0.109419 1.853835 0.361627 -0.890820 0.275072
0.073484 0.272084 0.503324 0.120118 -0.090811 0.988598
0.058396 -0.039085 1.991785 0.510171 -0.055533 0.858278
0.157712 -0.301207 1.801928 0.388543 -0.481998 0.785311
-0.027395 1.542599 -0.490085 0.302139 0.323122 -0.896830
0.123655 1.899970 -0.392611 0.477379 -0.239354 -0.845470
0.040055 -0.998643 1.879784 0.689598 -0.159683 0.706368
0.030224 -0.256518 1.758382 0.849882 -0.069153 0.522417
0.180251 -0.076747 1.916739 0.475958 -0.162813 0.864266
0.166794 -0.451343 1.548541 0.059479 0.218474 -0.974028
0.059129 -0.146733 1.953005 0.620708 -0.039268 -0.783058
0.030418 -0.205672 1.931898 0.858750 -0.426136 0.284528
0.027655 0.032669 -0.298844 0.376464 -0.614090 -0.693663
0.143608 -0.902782 1.876913 0.585403 -0.486586 0.648488
0.013547 -0.159422 1.950251 0.273977 -0.393249 0.877663
0.036358 -0.278893 1.877198 0.756919 -0.249913 0.603836
0.131172 -1.148776 1.721231 0.303099 -0.795050 -0.525383
0.106322 -0.133003 2.007838 0.477369 -0.249715 0.842473
0.148686 -0.335394 1.867283 0.773730 -0.411047 0.482061
0.070325 0.054394 1.939042 0.876300 0.335480 0.345762
0.118369 -0.130955 1.841955 0.175043 -0.964634 0.197083
0.106307 2.586437 -0.656676 0.677021 0.695218 0.241483
0.205434 2.369942 -0.382178 0.527734 0.748528 0.401501
0.086672 -0.339105 0.818371 0.649308 -0.751155 0.119014
0.064150 -1.077321 1.730934 0.354519 -0.934773 0.022717
0.118832 -0.237144 1.465774 0.653816 -0.755180 -0.047194
0.106416 0.273404 -0.250640 0.335169 -0.470768 -0.816112
0.044424 -0.072742 -0.096266 0.341838 -0.727963 -0.594321
0.099290 -0.295269 1.871794 0.771326 -0.238566 -0.590036
0.109465 -0.042276 1.978456 0.408845 0.233010 0.882356
0.183204 0.419457 -0.372054 0.321374 -0.337490 -0.884771
0.040535 -0.361679 1.904857 0.822682 0.082712 0.562453
0.042008 -0.280684 1.616809 0.015373 -0.073984 -0.997141
-0.002828 -0.979879 1.887023 0.656232 -0.717462 0.233684
0.157327 -0.901566 1.889301 0.686003 -0.194818 0.701032
0.142714 2.335186 -0.709966 0.578608 -0.465430 -0.669767
0.029228 0.096273 0.575036 0.134651 0.093922 0.986432
0.053266 -1.022861 1.738913 0.645730 -0.746785 0.159200
0.074984 -0.184474 2.047600 0.426401 -0.323184 0.844828
0.069174 -0.210664 1.906643 0.673384 -0.170126 0.719452
0.130190 -1.032927 1.896960 0.724471 -0.321390 0.609795
0.111896 -0.341951 1.786341 0.896353 0.074842 0.436978
0.110435 -1.000600 1.721917 0.240862 -0.681872 -0.690678
0.158744 2.061973 0.239445 0.342793 0.801702 0.489659
0.041765 1.995966 -0.271872 0.450549 -0.360172 -0.816873
0.132662 -0.244929 1.853163 0.228397 -0.002690 0.973564
0.206868 -0.173657 1.888233 0.268192 0.020251 -0.963153
0.127240 -0.554909 1.684954 0.028862 0.048204 -0.998420
0.153483 -0.130935 1.816902 0.227075 -0.516568 0.825587
0.161606 0.133531 1.822117 0.544697 0.722574 0.425666
0.178466 0.123969 2.020398 0.679945 0.364281 0.636376
0.040989 -0.243568 1.417261 0.689774 -0.720412 0.072239
0.094757 -1.087646 1.791800 0.313042 -0.783522 0.536747
0.057424 -0.268297 1.974632 0.521028 -0.146886 -0.840806
0.068344 -0.204137 1.887192 0.535514 -0.504378 -0.677368
0.004475 -0.039727 1.762499 0.465121 -0.884952 -0.022839
0.127817 -0.216222 2.019615 0.674636 -0.715496 -0.181469
0.109108 -0.417163 1.873886 0.603828 -0.000397 0.797115
0.273099 -0.168015 0.101307 0.257187 -0.838028 -0.481211
0.132157 0.062661 1.775433 0.109607 0.960504 -0.255771
0.099106 2.542267 -0.715056 0.779058 0.438918 -0.447682
-0.022628 0.088685 0.529277 0.187264 0.320855 0.928431
0.130473 -0.232092 1.262683 0.709709 -0.693219 0.125538
0.019548 -0.981402 1.836012 0.644291 -0.549769 0.531643
0.105540 -1.029088 1.806686 -0.958202 -0.101117 0.267629
0.135112 -0.926193 1.770628 -0.999834 0.017080 0.006419
0.194360 -1.007437 1.893957 -0.344672 -0.196656 0.917893
0.112023 0.019288 1.664676 0.209998 0.652629 -0.727995
0.015419 -0.313750 1.934459 0.609906 -0.425829 0.668344
0.063652 -0.817500 1.774923 0.525436 0.105711 0.844240
0.167841 -0.417892 1.943005 0.815264 -0.173234 0.552571
0.101822 -0.214461 1.909046 0.344060 -0.511595 0.787333
0.110880 -0.322489 1.034263 0.708750 -0.692701 0.133562
0.129589 0.172713 1.775570 0.162807 0.984107 0.070902
0.041822 -0.046806 1.603591 0.280439 0.762278 -0.583341
0.063483 -0.986488 1.869767 -0.829413 -0.557694 0.032418
0.062391 -1.012150 1.872473 -0.865210 -0.457560 -0.205063
0.170567 -0.997170 1.871398 -0.330874 -0.638175 0.695165
0.091802 -1.102708 1.683389 0.286197 -0.826044 -0.485533
0.041286 -0.254154 1.833171 0.630979 -0.510351 0.584301
0.077959 -0.257321 1.231904 0.723422 -0.679154 0.124139
0.143979 -0.895685 1.885876 -0.824094 0.407924 0.393022
0.112972 -0.918831 1.786887 -0.874057 0.443814 0.197618
0.156411 -0.981058 1.842029 -0.231458 0.047671 0.971676
0.073931 -0.244686 1.963708 0.552878 -0.498667 -0.667576
-0.034353 2.148780 0.041664 0.364469 0.821341 0.438819
0.046915 -0.939649 1.978326 0.600649 -0.241919 0.762034
0.097944 -0.911022 1.823855 -0.490366 -0.380968 0.783840
0.062759 -0.588659 1.834314 0.456905 0.084490 0.885494
0.152729 2.092439 -0.375484 0.416231 -0.445184 -0.792820
0.009028 2.521748 -0.672114 0.634706 -0.003495 -0.772746
0.105916 -0.137204 1.921698 0.374375 -0.647272 0.663989
0.079433 -1.227056 1.730441 0.195589 -0.399197 0.895760
-0.051677 -0.950010 1.844473 -0.350209 -0.730472 0.586315
0.196296 -0.054025 0.587852 0.263557 0.648334 0.714283
0.035604 2.413140 -0.664351 0.544275 -0.424373 -0.723653
0.109447 -0.111275 1.863146 0.391309 0.030305 0.919760
0.134271 -0.916398 1.868105 -0.483640 0.053557 0.873627
0.063369 -0.389750 1.891864 0.826046 0.085002 0.557156
0.149093 -0.311597 1.170598 0.728505 -0.675273 0.115269
0.132131 -0.177502 1.889546 0.181752 0.020691 0.983127
0.041173 -1.089060 1.546100 0.401087 -0.719173 -0.567380
0.134165 2.463892 -0.562822 0.464903 0.775764 0.426679
