834
-0.303376 1.882653 -0.402121 0.000007 -0.326282 -0.945273
-0.001950 1.707015 -0.206203 0.000004 -0.433477 -0.901165
-0.258820 0.536009 -0.369120 0.000001 -0.314109 -0.949387
-0.036353 2.505214 -0.607497 -0.000010 -0.592606 -0.805493
-0.092247 0.116567 1.729383 0.000001 0.999943 -0.010672
-0.034635 2.013041 -0.307296 -0.000005 0.829572 0.558400
0.267868 0.126065 0.256451 -0.000002 0.160275 0.987072
0.199277 0.502486 0.570165 -0.000001 -0.193464 0.981107
0.331912 -1.122517 1.734146 -0.000003 -0.704986 -0.709221
-0.076118 2.018471 0.255966 -0.000007 0.870810 0.491619
-0.312327 0.437403 0.691170 -0.000001 -0.249601 0.968349
0.216592 -0.044314 0.747084 -0.000005 0.918132 0.396274
0.076586 1.527286 0.695686 -0.000002 0.442972 0.896536
0.025882 0.869162 0.636666 -0.000001 -0.199483 0.979901
-0.223246 1.331265 0.802510 -0.000002 0.060914 0.998143
0.008208 -0.121252 0.895757 0.001888 0.974964 0.222356
-0.155121 0.162821 1.451356 -0.000006 0.918012 -0.396553
-0.037882 0.089956 1.749251 -0.000003 0.986353 -0.164647
-0.133265 -1.086767 1.953925 -0.000005 -0.789323 0.613978
-0.095995 0.143295 -0.425094 -0.000004 -0.474588 -0.880208
0.274775 -0.153137 0.071843 -0.000002 -0.920817 -0.389994
0.334296 1.567393 0.861437 -0.000003 0.596294 0.802766
-0.096879 -0.200378 0.431490 -0.000005 0.768817 0.639469
-0.095246 0.631948 1.162901 -0.000001 -0.255577 0.966789
0.114233 0.395184 0.710168 0.000386 0.955414 0.295270
0.132024 1.757097 0.553070 -0.000002 0.256361 0.966581
-0.275356 1.252169 0.616737 -0.000001 -0.092815 0.995683
-0.138516 -0.084011 0.855112 0.001629 0.997039 0.076880
-0.200704 -0.083121 1.528616 -0.000006 0.945893 -0.324480
0.074019 -0.016224 1.490871 -0.000005 0.812262 -0.583292
0.214700 0.101270 1.506267 -0.000004 0.602534 -0.798093
-0.069423 -0.829081 1.597702 -0.000006 -0.925661 -0.378355
0.098788 -1.045945 1.899160 -0.000005 -0.997823 0.065953
-0.131978 -0.882069 1.981909 -0.000004 -0.390372 0.920657
-0.081895 -0.160696 1.879173 -0.000009 0.069797 0.997561
0.213439 -0.325731 -0.524353 -0.000005 -0.630973 -0.775805
0.028951 -0.253259 -0.152559 -0.000004 -0.857870 -0.513867
0.090024 1.717035 0.220935 -0.000004 0.728112 0.685458
0.145409 0.296139 0.415800 -0.000002 -0.055964 0.998433
-0.187089 -0.139611 0.330022 -0.000003 0.417345 0.908748
0.138953 0.111842 1.447433 -0.000004 0.711918 -0.702262
-0.134514 0.000317 1.636770 -0.000003 0.700733 -0.713424
0.162683 -1.061529 1.809024 -0.000005 -0.857829 -0.513934
0.147541 -1.179839 1.754875 -0.000004 -0.896273 -0.443502
0.225347 -0.863711 1.936152 -0.000001 0.220119 0.975473
0.069786 -0.748312 1.741060 -0.000013 -0.035641 0.999365
0.126137 -0.522614 1.793851 -0.000013 -0.073395 0.997303
-0.079271 -0.632839 1.838486 -0.000011 -0.082030 0.996630
-0.257599 -0.600647 1.770632 -0.000008 -0.091030 0.995848
-0.092376 -0.060263 1.850393 -0.000001 -0.270533 0.962711
0.112743 -0.339888 1.908350 -0.000015 -0.957170 -0.289528
-0.083421 0.134904 1.789286 0.000005 0.800643 0.599142
0.015926 -0.020611 2.318889 -0.000012 0.226157 0.974091
0.178485 2.597611 -0.498764 -0.000011 0.993984 -0.109528
0.263839 2.507665 -0.454356 -0.000008 0.953496 0.301405
-0.018343 2.543471 -0.481852 -0.000010 0.897849 0.440303
-0.147424 2.321525 -0.696971 -0.000011 0.880674 0.473723
-0.126423 2.356824 -0.371373 -0.000010 0.879086 0.476662
0.317029 2.590381 -0.270134 -0.000010 0.885524 0.464594
-0.321201 -0.192022 0.458401 -0.000003 -0.963484 -0.267766
0.030429 -0.316503 0.803761 -0.000004 -0.989308 -0.145839
-0.060453 -0.508120 0.583704 -0.000078 -0.999411 -0.034305
-0.020495 -0.314863 1.036522 0.001049 -0.998871 0.047494
-0.309165 -0.401507 0.990501 0.003182 0.988831 0.149006
-0.255895 -0.173252 1.100430 0.004543 -0.994539 0.104270
0.265650 -0.070702 1.376823 -0.000252 0.963419 -0.267998
-0.305239 -0.870136 1.270632 -0.000001 0.162027 -0.986786
0.254098 -0.398188 1.451103 -0.000003 0.316378 -0.948633
-0.058700 -0.552247 1.412353 -0.000002 0.335795 -0.941935
-0.046691 -0.049578 1.516422 0.000081 -0.991771 -0.128024
-0.068053 -0.085812 1.902065 -0.000298 -0.720899 -0.693040
-0.163022 -0.616560 1.330652 -0.000002 0.281879 -0.959450
0.114868 -0.279298 1.478187 -0.000002 -0.156215 -0.987723
-0.063371 -0.278154 1.765587 -0.000002 -0.189895 -0.981804
0.060182 -0.382107 1.397197 -0.000001 -0.131616 -0.991301
0.159161 -0.512514 1.818707 -0.000002 0.141312 -0.989965
0.053113 -0.708224 1.733130 -0.000001 -0.033121 -0.999451
-0.010488 -1.068761 1.980206 -0.000026 0.467167 0.884169
0.217260 -1.112875 2.098365 0.000002 0.780541 0.625104
-0.206403 -1.307472 2.020762 0.000122 -0.778030 0.628227
-0.172130 0.046443 1.569494 0.000002 0.999174 0.040626
-0.036563 -0.891450 1.907709 -0.000011 0.074489 0.997222
-0.320927 -0.746451 2.059505 -0.000011 0.166065 0.986115
0.096204 -0.453940 1.419457 -0.000000 -0.864065 0.503381
-0.104781 -0.204395 1.803544 -0.000011 -0.973511 -0.228641
-0.063495 -0.907577 1.908135 -0.000009 0.087867 0.996132
-0.103102 0.227176 1.922020 0.000002 0.992890 0.119036
0.334714 -0.159715 2.161661 -0.000010 -0.827142 0.561993
-0.109162 -0.050466 1.871520 0.000002 0.963909 0.266232
-0.007910 -0.289287 1.885663 -0.000004 -0.478574 0.878047
-0.090522 -0.158018 1.898939 0.000004 0.909987 0.414637
0.022655 -0.353495 1.937917 -0.000003 -0.361307 0.932447
0.002760 -0.139989 1.682685 -0.000003 -0.296464 0.955044
0.121078 -0.113761 2.149130 -0.000005 0.062640 0.998036
-0.208663 0.096962 2.017092 -0.000003 0.117150 0.993114
-0.064438 -0.311978 2.063357 -0.000004 -0.165109 0.986275
-0.315744 -0.189516 2.013595 -0.000003 0.046202 0.998932
0.040031 2.508031 -0.226520 -0.000009 0.882288 0.470710
0.155201 0.048785 -0.094533 -0.000005 -0.763775 -0.645482
0.064697 -0.211094 1.968425 -0.000003 0.887209 -0.461368
-0.148328 -1.048416 1.595587 -0.000009 -0.630794 -0.775950
0.082655 -0.976326 1.905854 -0.000030 -0.507142 0.861862
-0.095843 2.328288 -0.499514 -0.000011 0.685508 -0.728065
-0.032652 -0.633938 1.622830 -0.000003 -0.171731 -0.985144
0.078010 -1.062675 1.891433 -0.000012 -0.214309 0.976766
-0.283807 0.240806 1.908070 -0.000004 0.548509 0.836145
-0.157470 2.677446 -0.877555 -0.000012 0.053360 -0.998575
-0.081485 2.550477 -0.854439 -0.000013 -0.328822 -0.944392
0.040216 2.438219 -1.029765 -0.000016 -0.523260 -0.852173
-0.044024 -0.943971 1.725108 0.000807 -0.858097 0.513487
-0.032488 -0.420228 1.356765 0.001808 -0.994734 0.102476
-0.088121 -1.232184 2.477658 0.002079 -0.999993 -0.003263
0.307364 -0.378780 0.884267 0.006423 -0.987977 0.154468
0.049051 -0.649792 1.395620 0.003886 -0.979011 0.203768
-0.171895 -0.347143 1.230549 0.004218 -0.970419 0.241389
0.065344 0.114369 1.231733 0.004859 -0.978372 0.206797
-0.389247 0.171549 2.045952 -0.126110 0.533319 0.836461
0.131580 -0.224870 2.133921 -0.066839 -0.833553 0.548381
-0.396008 -0.321941 2.160415 -0.101725 -0.230361 0.967774
0.070935 -0.290697 1.797954 -0.179875 -0.959297 -0.217700
-0.320047 0.000883 2.006122 -0.125687 0.788772 0.601699
-0.070408 -0.086016 1.811938 -0.168918 -0.096218 0.980922
-0.261048 0.029071 1.861957 -0.211106 0.213464 0.953870
0.002365 -0.330119 2.119130 -0.214841 -0.083768 0.973050
-0.153839 -0.386140 2.148130 -0.984079 -0.161994 -0.073117
-0.114875 -1.085836 1.900107 -0.295255 -0.182495 0.937827
0.255869 -0.347573 1.914800 -0.964136 0.206601 -0.166608
-0.212836 -0.385349 1.789675 -0.575908 -0.680734 0.452693
0.104964 -1.274831 1.955483 -0.262249 -0.755394 0.600505
-0.171732 -0.477750 1.721634 -0.243060 -0.068449 0.967593
-0.109475 -0.116575 1.675314 -0.185526 0.858923 0.477317
0.175051 -0.210902 2.093840 -0.802954 -0.092057 0.588889
0.038889 -0.168276 1.987121 -0.975152 0.182303 -0.125872
0.032805 -0.156648 1.946102 -0.312525 -0.892482 -0.325277
0.154366 -0.107625 2.068484 -0.992529 -0.107412 -0.057870
-0.144723 0.061271 1.883560 -0.612801 0.159732 0.773926
-0.073913 -1.136981 1.712863 -0.291781 -0.551079 0.781777
0.021660 -0.369794 2.135552 -0.567675 -0.169165 -0.805685
-0.009315 -0.091955 1.530347 -0.365792 -0.129163 0.921690
0.108324 -0.316304 1.906833 -0.256170 -0.013012 0.966544
-0.349632 0.062439 2.339845 -0.255165 0.873716 0.414140
-0.204444 -0.364515 1.670266 -0.531488 0.187529 0.826047
-0.265018 -0.306415 1.900511 -0.678139 -0.029589 0.734338
-0.313961 -0.487051 1.812451 -0.407350 0.055594 -0.911578
0.050875 -0.164290 2.196732 -0.879748 -0.410566 -0.239748
-0.126340 -0.154515 1.917138 -0.453969 -0.779561 -0.431506
-0.231461 2.911172 -0.561801 -0.223879 0.876957 0.425235
-0.085115 -0.320178 1.841228 -0.584280 0.034560 0.810816
-0.349088 -0.903195 1.887335 -0.334469 0.078708 0.939114
-0.261944 -0.967331 2.195501 -0.323115 -0.837262 0.441122
0.000619 -0.157140 2.045692 -0.687312 -0.141985 0.712350
-0.348745 2.922552 -0.392586 -0.229682 0.939307 0.254849
0.203208 -0.216093 1.939802 -0.259807 -0.893819 0.365497
-0.278990 -0.604181 1.931209 -0.417538 -0.296559 0.858903
-0.063984 2.624336 -0.411027 -0.270539 0.846265 0.458960
-0.178631 0.004559 2.008366 -0.429537 -0.062500 -0.900884
-0.083956 -0.126507 1.880451 -0.213635 0.123841 0.969032
0.015305 -0.006117 1.750695 -0.560507 -0.040154 0.827176
0.154053 -0.378769 1.884576 -0.401177 0.196290 0.894722
0.152310 -0.435754 1.950356 -0.265061 0.098456 0.959192
-0.128477 2.265735 -0.701124 -0.251895 -0.322980 -0.912268
-0.087461 0.211326 1.982644 -0.536459 -0.362719 -0.762002
-0.015170 0.262243 2.245737 -0.178129 0.946051 0.270663
0.226821 -0.735376 2.186849 -0.285781 0.156416 0.945444
0.096362 -0.247872 2.137743 -0.420163 -0.137240 -0.897011
-0.338538 2.429281 -0.738021 -0.304247 -0.515727 -0.800911
-0.183823 2.560488 -0.579399 -0.291996 0.942322 -0.163608
-0.251041 -0.923977 1.174735 -0.115454 -0.114061 -0.986742
-0.219678 -0.265063 1.984950 -0.385888 -0.077533 0.919282
0.063454 -0.516342 0.834949 -0.324246 -0.938363 0.119750
-0.139350 2.430289 -0.976351 -0.320335 0.122744 -0.939319
0.214381 -0.238555 1.048103 -0.344729 -0.926135 0.153087
0.029354 -0.197792 2.229844 -0.412863 -0.137787 -0.900311
-0.007171 0.036322 2.257217 -0.386024 0.464965 0.796739
0.296137 2.646750 -0.671716 -0.415124 0.650141 -0.636387
-0.129574 -0.139861 1.596743 -0.341759 -0.919297 0.195175
0.000103 -0.528330 1.730038 -0.033866 0.098850 -0.994526
0.041634 -0.351463 1.797717 -0.878152 -0.465253 -0.111303
-0.173083 -0.071284 1.973628 -0.119813 -0.490692 0.863056
-0.032224 -0.284539 1.886924 -0.336520 0.172430 0.925755
-0.306749 -0.320368 1.875556 -0.314510 0.134386 0.939693
0.112377 0.073225 2.150721 -0.207816 -0.010645 -0.978110
0.259813 -0.001115 1.924621 -0.761622 -0.272098 0.588127
-0.012295 -1.140828 1.603103 -0.498934 -0.490933 0.714177
-0.439544 0.025727 1.673807 -0.324326 -0.921130 0.215248
0.256400 -0.673442 1.715359 -0.017988 -0.056801 -0.998223
-0.284787 2.458783 -0.415130 -0.343733 -0.561391 -0.752787
-0.283502 2.587312 -0.381683 -0.320706 0.833172 0.450524
-0.213753 -1.002039 1.944763 -0.426626 -0.372104 0.824336
-0.112513 -1.277416 2.176482 -0.385505 -0.639327 0.665318
-0.304354 -0.459056 0.577099 -0.282890 -0.956474 0.071626
0.454283 -0.480401 1.764755 -0.413284 -0.072870 0.907682
-0.226912 -0.140891 1.515363 -0.292719 -0.942629 0.160519
0.083497 -0.293976 1.619272 -0.543441 -0.035058 0.838715
0.048047 -0.195424 2.047575 -0.128009 -0.345281 0.929728
-0.214029 -0.085023 1.996230 -0.411394 -0.058121 0.909603
-0.227008 -0.667427 1.565284 -0.055890 0.256509 -0.964925
0.217090 -0.379549 1.460479 -0.261398 -0.963258 0.061686
0.053329 -0.364618 1.435899 -0.024627 -0.131924 -0.990954
-0.259099 -0.242006 1.916650 -0.156783 0.120002 0.980315
-0.119619 -0.387183 2.019136 -0.626850 -0.231443 -0.743972
-0.091806 -0.179349 2.069100 -0.149711 -0.269376 0.951327
0.036400 -0.413231 1.423675 -0.043926 -0.171533 -0.984199
0.094117 -0.386034 1.650293 -0.218003 -0.947506 -0.233896
0.098466 -0.331322 1.524584 -0.068157 -0.099990 -0.992651
0.093697 -0.756740 1.658085 -0.983587 -0.124814 0.130299
-0.022138 -0.765372 1.660048 -0.997899 -0.059449 -0.025746
0.214683 -0.940077 1.717532 -0.868543 -0.319519 0.378868
-0.217184 -0.973911 1.951321 -0.357632 -0.743419 0.565179
0.282585 0.015303 1.642143 -0.135390 0.982797 0.125621
0.042675 -0.424525 1.425918 -0.136978 -0.482082 -0.865352
0.175803 -0.356962 1.901201 -0.283257 -0.168263 -0.944168
-0.111989 0.089878 1.617466 -0.157326 -0.132763 0.978582
-0.206839 -0.802051 1.775714 -0.584832 -0.455806 0.670979
0.017470 -0.054907 2.232407 -0.313140 0.093254 0.945117
0.006863 -0.282876 1.957449 -0.234659 -0.010900 -0.972017
0.008930 0.095308 2.103512 -0.160398 0.016507 0.986914
-0.040066 -0.982536 2.108588 -0.918691 0.223198 0.325867
0.041063 -1.183928 1.369324 -0.923261 0.350346 0.157625
0.010238 -0.811274 1.683421 -0.813429 -0.214046 0.540849
-0.207147 -1.089077 1.518986 -0.842471 -0.246531 0.479026
-0.309342 -0.149709 2.294571 -0.127444 0.136337 0.982431
0.002614 -0.454335 0.549830 -0.253653 -0.967249 -0.009487
-0.047017 -0.269275 1.869904 -0.426192 -0.050448 0.903225
0.008117 -0.277825 1.183130 -0.311965 0.946507 -0.082478
-0.330411 -0.018376 1.016610 -0.318055 0.948014 0.010488
-0.187695 0.141728 1.958404 -0.503815 0.588383 0.632437
-0.043029 -0.842587 2.035358 -0.886317 -0.459930 0.053923
0.152780 -0.861670 1.851850 -0.872844 -0.445923 -0.198234
-0.282046 -0.791691 1.859820 -0.833179 -0.516758 0.196911
-0.054791 2.467010 -0.853465 -0.366475 -0.545614 -0.753659
-0.040211 -0.299303 2.049898 -0.287798 0.162132 0.943867
-0.029240 -0.683924 1.952626 -0.107800 0.179378 -0.977856
-0.216972 -0.241810 1.771173 -0.581737 -0.230857 0.779928
-0.218257 -0.049666 2.044428 -0.433141 -0.738521 -0.516697
-0.172437 -0.418126 1.944697 -0.064052 0.330875 -0.941498
-0.067014 -0.187706 0.773441 -0.244973 -0.962721 -0.114706
0.004184 -1.040162 1.943543 -0.720495 -0.095670 0.686830
0.274446 -0.207665 2.195275 -0.389306 -0.490150 -0.779868
-0.352910 -0.043173 0.998508 -0.307429 0.934340 -0.180267
0.089304 -0.028651 1.019258 -0.322554 0.942087 0.091818
0.097920 -1.070300 2.164899 -0.771938 -0.449862 0.449149
-0.098189 -0.136301 1.754132 -0.859785 -0.484356 -0.161770
-0.243139 2.321949 -0.509873 -0.357092 0.827327 0.433608
-0.140520 0.076897 1.735814 -0.793929 -0.404644 0.453806
-0.140248 -0.958445 1.705752 -0.302218 0.622901 0.721567
0.016132 -1.296706 1.908970 -0.231015 0.888051 0.397490
-0.040996 -1.155116 1.791150 -0.645730 -0.051224 0.761846
0.039653 2.565556 -0.626215 -0.412381 0.873759 0.257850
-0.096707 -0.514900 0.297844 -0.237238 -0.945053 -0.224928
0.017069 -0.817825 1.634818 -0.078001 0.307389 -0.948382
-0.099946 -0.132148 1.797976 -0.610721 -0.010956 0.791770
0.222182 -0.883870 1.915720 -0.330564 0.100829 0.938382
-0.205097 -0.102644 1.486496 -0.303194 0.918554 -0.253638
0.040393 -0.893281 1.608638 -0.511556 -0.803108 0.305496
0.300686 -0.301180 2.060193 -0.322380 0.045643 -0.945509
-0.185116 -1.109609 1.928387 -0.423318 -0.905712 -0.022079
-0.073632 -0.831186 2.088946 -0.266716 -0.880363 -0.392203
0.045836 -0.784988 2.071405 -0.419973 -0.900053 0.116305
-0.071157 -1.277423 2.188168 -0.569432 -0.672478 0.472779
0.076425 -0.115772 1.992422 -0.420240 -0.014845 0.907292
-0.036728 -0.546518 2.083192 -0.768693 0.009873 0.639541
0.146176 -0.086320 1.829895 -0.691792 -0.317645 -0.648480
-0.124825 0.230962 1.117506 -0.326223 0.930953 0.164031
-0.383763 -0.195674 2.207644 -0.286428 -0.140209 -0.947787
0.046580 -0.802031 1.790117 -0.548170 -0.424421 0.720678
-0.150618 -1.178395 1.755125 0.168682 0.737844 0.653554
-0.081220 -0.046439 2.275858 -0.637020 0.538741 0.551329
0.018586 -0.429526 1.928003 -0.292126 -0.059343 0.954537
-0.421088 -0.061983 1.486879 -0.228132 0.137762 0.963835
-0.151201 2.383657 -0.321285 -0.463060 -0.321692 -0.825888
0.010123 -0.803768 1.751248 -0.390488 -0.381572 0.837808
-0.480362 -1.010077 2.127066 -0.506103 -0.855158 0.112090
-0.281393 1.999078 -0.601704 -0.383316 -0.499804 -0.776701
-0.230377 0.128937 1.571968 -0.308058 0.896884 -0.317331
-0.173996 -0.481774 2.173146 -0.429148 0.004938 0.903221
0.022348 2.518925 -0.661533 -0.423242 0.818102 0.389326
-0.319187 -1.146210 1.461682 -0.487488 -0.726166 0.484807
-0.113640 -1.193050 1.495788 -0.194786 -0.212177 -0.957622
0.015534 -0.083199 1.972499 -0.445309 -0.888402 0.111548
-0.012765 2.363797 -0.095592 -0.377100 0.823327 0.424179
-0.082327 0.446310 1.646590 -0.202859 0.672989 -0.711290
0.001747 -0.793725 1.895558 0.153039 0.223874 0.962528
0.175902 -0.154348 1.864618 -0.741956 -0.644629 0.184269
-0.072559 -1.357403 1.710113 -0.009475 0.275349 0.961298
0.183609 -1.063789 1.594268 0.496551 0.589333 0.637279
0.213397 -0.651784 2.105202 0.614390 0.720583 0.321379
-0.176708 -0.920072 1.727451 0.054601 0.123615 0.990827
-0.161642 0.120932 1.766304 -0.429751 0.264388 0.863373
0.008888 -0.665551 2.007847 -0.132053 -0.832303 0.538362
-0.223638 -0.180282 0.705141 -0.328816 0.915157 0.233170
-0.378505 -0.328948 2.078948 -0.534653 -0.251590 0.806752
-0.049065 -1.270627 1.859431 -0.310314 -0.866230 -0.391600
-0.021358 -0.726555 1.547387 -0.559950 -0.212223 0.800885
-0.062108 0.046650 0.360864 -0.226587 -0.911269 -0.343870
-0.260563 -0.195059 2.135195 -0.621076 -0.019761 0.783501
-0.163605 -1.180212 2.026433 0.377749 -0.921726 -0.087903
0.079663 -0.826032 2.024217 0.512554 -0.783886 -0.350443
-0.065755 -1.035562 1.989587 0.092673 -0.925338 0.367643
-0.129678 -0.854543 1.983962 -0.572841 -0.037401 0.818813
-0.194801 -1.150989 2.015661 0.062123 0.395537 0.916347
-0.159642 0.144539 0.719453 -0.318317 0.898165 0.303273
-0.092517 -0.409796 2.177379 -0.453618 -0.403280 -0.794730
-0.045825 0.069680 1.362164 -0.303534 0.856109 -0.418263
-0.218882 0.310410 0.827474 -0.297729 0.855007 0.424642
-0.269117 -0.299188 1.903495 -0.732892 -0.656015 -0.180315
-0.092277 0.282593 1.856602 -0.217800 0.590025 -0.777453
-0.072464 -0.385567 1.731001 -0.368267 -0.060999 -0.927717
-0.094747 -0.349629 1.855171 -0.669251 -0.487978 -0.560339
-0.206023 -0.073472 1.760546 -0.327287 0.015488 -0.944798
-0.384712 2.449330 -0.693442 -0.599170 0.799935 -0.033153
-0.130249 0.407280 1.745812 -0.163016 0.834322 -0.526623
0.047104 0.215436 1.669691 -0.578172 0.604889 0.547564
0.208024 2.627806 -0.800973 -0.464953 0.775745 0.426659
-0.013303 -1.190533 1.894450 -0.401126 -0.719159 -0.567370
-0.044269 -0.282426 1.999242 -0.181752 0.020691 0.983127
-0.022917 0.039589 1.931069 -0.826045 0.085002 0.557157
-0.083633 -0.870104 1.557543 0.483641 0.053559 0.873626
-0.241241 -0.477944 1.690673 -0.391312 0.030306 0.919759
-0.206786 2.180256 -0.611561 -0.544370 -0.424337 -0.723602
-0.298954 -0.238596 0.512266 -0.263581 0.648328 0.714280
-0.128027 -0.999687 2.050877 0.350260 -0.730463 0.586296
-0.071707 -0.659093 2.128777 -0.195607 -0.399188 0.895761
0.040249 -0.439583 1.448047 -0.374367 -0.647271 0.663996
-0.173423 2.512858 -0.549323 -0.634793 -0.003492 -0.772674
-0.267534 2.401467 -0.523292 -0.416210 -0.445160 -0.792844
-0.047885 -0.496135 1.733709 -0.456954 0.084492 0.885468
-0.349465 -0.590319 2.044091 0.490376 -0.380960 0.783838
-0.282311 -1.247790 1.670494 -0.600659 -0.241938 0.762020
-0.378748 2.120060 0.034951 -0.364499 0.821332 0.438811
-0.094176 -0.403131 1.269342 -0.737156 -0.666446 0.111584
-0.048755 -0.335717 2.216815 -0.552895 -0.498651 -0.667574
-0.277222 -0.756228 1.984879 0.824094 0.407936 0.393010
-0.144683 -1.081529 1.733823 0.874054 0.443819 0.197621
0.006064 -0.933543 2.189847 0.248503 0.060409 0.966746
-0.065429 -0.056046 1.936453 -0.630975 -0.510354 0.584302
-0.152986 -1.009937 1.768936 -0.286222 -0.826036 -0.485533
-0.094674 -0.716015 1.952454 0.829435 -0.557663 0.032389
-0.134650 -1.067593 1.644678 0.865205 -0.457568 -0.205066
-0.324853 -0.806253 1.960838 0.330863 -0.638192 0.695155
-0.018827 -0.245230 1.881146 -0.280468 0.762266 -0.583342
0.026847 0.238080 2.010392 -0.162828 0.984103 0.070907
-0.063410 -0.166578 1.903545 -0.344137 -0.511611 0.787289
-0.046931 -0.374342 0.908053 -0.707925 -0.694498 0.128511
-0.039973 -0.173923 1.510580 -0.815262 -0.173237 0.552572
-0.049083 -1.180898 2.023788 -0.525488 0.105707 0.844209
-0.185648 0.062112 1.768941 -0.609905 -0.425829 0.668345
-0.039595 -0.134406 1.410362 -0.210019 0.652625 -0.727992
-0.023625 -0.892934 1.982186 0.958198 -0.101142 0.267630
0.127143 -0.865032 1.932032 0.999834 0.017066 0.006412
-0.397462 -1.250606 1.878667 0.352069 -0.186292 0.917248
-0.370346 -0.348419 1.388628 -0.741855 -0.659947 0.118831
0.003214 -0.193930 0.661212 -0.187280 0.320851 0.928429
0.084423 2.639826 -0.882883 -0.779109 0.438877 -0.447634
-0.055383 -0.973944 1.641200 -0.626324 -0.534774 0.567217
-0.314323 0.350536 1.681015 -0.109619 0.960503 -0.255768
-0.208439 -0.353966 0.300819 -0.257209 -0.838023 -0.481207
0.062642 -0.316502 1.921972 -0.603843 -0.000392 0.797103
0.099386 -0.203201 1.786231 -0.674670 -0.715450 -0.181526
0.008852 -0.138793 1.858620 -0.465118 -0.884954 -0.022836
-0.363916 0.067715 1.535792 -0.535516 -0.504375 -0.677369
-0.035298 -0.480918 1.859624 -0.521043 -0.146890 -0.840796
-0.445010 -0.340133 1.083522 -0.732450 -0.669877 0.121581
-0.074495 -1.203361 1.742481 -0.313068 -0.783509 0.536751
-0.134443 -0.106022 1.811741 -0.679974 0.364274 0.636348
0.015700 0.038325 1.881956 -0.544735 0.722541 0.425674
-0.136095 0.262361 1.633203 -0.227075 -0.516568 0.825587
-0.291603 -0.374227 1.579618 -0.028867 0.048204 -0.998420
-0.165929 -0.123965 1.925498 -0.268193 0.020251 -0.963152
-0.135894 -0.139271 1.846824 -0.228406 -0.002694 0.973562
-0.371870 1.901767 -0.567656 -0.450543 -0.360177 -0.816874
-0.063271 2.051299 0.100695 -0.342819 0.801695 0.489652
-0.266992 -1.002196 1.872229 -0.240879 -0.681859 -0.690685
0.074331 -0.336156 1.881235 -0.896353 0.074847 0.436977
-0.033455 -0.480837 1.654863 -0.673381 -0.170124 0.719455
-0.202058 -0.119573 1.342439 -0.709227 -0.701076 0.074092
-0.307401 -1.219541 1.924611 -0.708912 -0.303985 0.636425
-0.404839 -0.145678 1.992751 -0.426476 -0.323187 0.844789
0.035540 0.275013 0.929695 -0.134662 0.093920 0.986431
0.107686 2.298884 -0.878769 -0.578654 -0.465424 -0.669731
-0.071991 -0.874478 2.061483 -0.680295 -0.189047 0.708138
-0.220129 -0.085310 1.486573 -0.015376 -0.073984 -0.997141
-0.037812 -0.366053 2.053557 -0.822681 0.082711 0.562454
-0.110168 0.399476 -0.205121 -0.321376 -0.337475 -0.884776
-0.072736 -0.780955 1.809073 -0.644008 -0.750226 0.149716
0.175649 -0.118648 1.969287 -0.408898 0.233028 0.882327
-0.154694 0.060707 1.993455 -0.771337 -0.238567 -0.590021
-0.100181 -0.670402 2.149501 -0.652073 -0.715086 0.251897
-0.321462 -0.035796 -0.278279 -0.341864 -0.727957 -0.594313
-0.244154 0.333122 -0.226055 -0.335191 -0.470762 -0.816107
0.054940 -1.310359 1.657819 -0.354547 -0.934762 0.022727
-0.215008 -0.334963 0.897904 -0.646921 -0.753861 0.114835
-0.437151 2.687774 -0.568925 -0.527780 0.748507 0.401479
-0.025511 2.542203 -0.788537 -0.677050 0.695192 0.241477
-0.023193 -0.135645 1.591337 -0.175043 -0.964634 0.197084
-0.033585 0.101841 1.760873 -0.665712 -0.744941 -0.043487
0.019114 -0.026834 1.769220 -0.876314 0.335470 0.345737
-0.237023 -0.286405 1.976101 -0.773725 -0.411053 0.482063
-0.061491 -0.139020 1.916523 -0.477434 -0.249710 0.842438
-0.166055 -0.870843 1.835434 -0.303122 -0.795039 -0.525385
-0.048548 -0.124274 1.937950 -0.756917 -0.249916 0.603837
-0.273570 -0.199494 1.668068 -0.273978 -0.393249 0.877663
-0.078816 -0.098429 1.929917 -0.858785 -0.426121 0.284444
-0.159899 -0.020458 -0.439929 -0.376490 -0.614082 -0.693655
0.206727 -0.681081 1.662955 -0.590858 -0.490086 0.640861
-0.145557 -0.558217 1.974019 -0.620716 -0.039274 -0.783051
-0.053692 -0.484098 1.485421 -0.059487 0.218475 -0.974028
-0.047373 0.091972 1.819593 -0.476016 -0.162811 0.864235
-0.211821 -0.302890 1.476283 -0.849880 -0.069152 0.522419
0.076299 -1.127993 1.815515 -0.687605 -0.158707 0.708528
-0.056646 1.996641 -0.107140 -0.477363 -0.239422 -0.845459
0.049001 1.443542 -0.147381 -0.302082 0.323129 -0.896847
-0.242959 -0.151082 1.779460 -0.388543 -0.481998 0.785310
-0.265832 -0.115400 2.080148 -0.510230 -0.055543 0.858242
-0.035568 0.352962 0.489287 -0.120128 -0.090812 0.988596
-0.011257 -0.141865 1.783418 -0.361627 -0.890820 0.275072
-0.023062 2.071533 0.419797 -0.325924 0.725655 0.605969
0.038740 -0.152289 1.955110 -0.411765 0.162670 0.896654
-0.116716 2.864112 -0.576371 -0.809371 -0.158168 -0.565599
-0.147838 0.268731 2.091501 -0.814963 0.278724 0.508083
-0.308702 0.016533 1.897242 -0.709094 -0.536744 -0.457265
-0.113999 1.299253 -0.537144 -0.267928 0.354735 -0.895755
-0.033261 -0.178021 1.409817 -0.024938 -0.105581 -0.994098
0.084581 1.582402 -0.269045 -0.376584 0.237030 -0.895545
-0.254493 0.205881 1.280320 -0.698445 0.712219 -0.070133
-0.047935 0.028828 1.202559 -0.696292 0.717547 0.017410
-0.003476 0.001098 2.130251 -0.784077 -0.185632 0.592253
0.056787 -0.337497 1.970084 -0.179756 -0.249086 0.951653
-0.153472 0.562377 -0.606918 -0.281102 -0.192684 -0.940135
-0.315751 -0.832031 1.597451 -0.176784 0.108826 -0.978215
-0.202723 -0.245509 1.977578 -0.527394 -0.145873 0.837005
-0.266432 -0.355300 1.274480 -0.940467 -0.331803 0.073680
-0.134841 -0.335272 1.844156 -0.585866 0.038754 0.809481
-0.412616 1.564999 -0.182121 -0.467111 -0.023144 -0.883896
-0.244884 -0.175721 1.272048 -0.952323 -0.302140 0.042344
-0.233237 0.103783 1.871249 -0.902175 -0.095470 -0.420673
-0.001264 -0.576128 2.003474 -0.904439 0.142325 0.402161
0.033801 -0.076913 1.397409 -0.049059 -0.091170 -0.994626
-0.044171 -0.198636 1.740323 -0.942098 -0.232658 0.241499
-0.246494 -0.241995 1.388111 -0.702697 0.693462 -0.159149
-0.233708 -0.461566 1.792184 -0.574228 -0.459654 0.677481
-0.427201 -0.154850 1.654940 -0.058422 -0.037173 -0.997600
0.091875 0.397082 1.931771 -0.777021 -0.604563 0.175336
-0.449979 -0.086601 2.187643 -0.735720 -0.254954 0.627467
0.007202 -0.268281 1.087016 -0.954976 -0.295791 0.022999
-0.330296 0.232805 1.744037 -0.854886 -0.019652 -0.518443
-0.126647 -0.362460 1.922537 -0.128413 -0.237856 -0.962774
-0.175538 1.205877 -0.572703 -0.287090 0.272818 -0.918232
-0.001534 2.630701 -0.765836 -0.927090 0.333066 -0.171965
0.102052 -0.462729 1.973447 -0.975450 -0.108107 -0.191861
-0.180796 -0.504030 0.781142 -0.590175 -0.806537 0.034520
0.089897 2.473168 -0.726027 -0.703108 0.643435 0.302706
-0.382437 -0.023683 1.017127 -0.698745 0.708336 0.100071
-0.368161 2.139851 -0.866106 -0.583876 -0.449470 -0.676067
-0.026623 -0.052109 1.983348 -0.964580 -0.240305 0.108811
-0.045243 -0.224856 0.913410 -0.916730 -0.376379 0.133957
-0.113028 -0.956175 1.510755 -0.436820 -0.391520 -0.809876
-0.420388 -0.316241 1.807088 -0.775525 0.088236 0.625121
-0.007052 -0.188057 2.105662 -0.948215 -0.041858 -0.314859
0.069549 -0.119264 1.687991 -0.946810 -0.321295 -0.017900
-0.113279 -0.370707 2.057503 -0.172781 -0.457171 0.872434
-0.168906 -0.261443 1.851194 -0.955876 -0.102087 -0.275461
-0.317801 -0.027628 2.118052 -0.893555 0.023999 -0.448312
-0.176262 -0.888505 1.497637 -0.503856 -0.686081 -0.524807
0.037273 -0.213988 1.989438 -0.929539 -0.181363 0.321036
-0.125088 -0.173655 1.657134 -0.987251 -0.159170 -0.000301
-0.142628 0.197908 1.835372 -0.584982 0.660063 0.471289
-0.044584 -0.014493 1.846942 -0.891614 -0.342260 0.296450
-0.272202 0.163549 2.051774 -0.798122 0.301444 0.521664
-0.207619 -0.207929 1.818954 -0.476321 -0.506247 0.718910
-0.354286 0.067004 2.008268 -0.760580 0.237521 0.604236
-0.413528 -0.717768 1.759613 -0.092348 0.315432 -0.944444
-0.202578 -0.080482 1.953386 -0.654068 -0.000879 0.756435
0.007891 -0.184179 1.270783 -0.990944 -0.132204 0.023510
-0.212954 0.241541 0.635787 -0.139572 -0.201147 0.969567
0.010160 -0.683881 1.700641 -0.785657 -0.386260 0.483265
-0.286032 -0.370603 1.271063 -0.713060 0.663728 -0.225856
-0.160739 0.969835 -0.779491 -0.298495 0.144172 -0.943459
-0.269192 1.615822 0.567827 -0.319632 0.603469 0.730521
-0.065061 -0.167864 1.946591 -0.950306 -0.310231 0.025988
-0.045433 0.769818 -0.609900 -0.280219 -0.022394 -0.959675
-0.235255 0.182591 1.975839 -0.881172 -0.300747 -0.364810
-0.289257 -0.028849 1.844123 -0.817600 -0.086112 -0.569311
-0.637196 0.297093 1.086054 -0.987376 -0.157758 -0.014192
-0.395204 -0.185915 2.098893 -0.950819 -0.029081 -0.308379
0.004607 -0.110982 2.022774 -0.918220 -0.146064 0.368154
0.200853 -0.245208 1.784409 -0.647658 -0.186419 0.738774
-0.073980 0.187431 2.070960 -0.949263 0.214146 0.230307
-0.138033 -0.135122 0.787218 -0.988052 -0.137522 0.069575
-0.053493 -0.057321 2.008997 -0.917717 -0.376795 -0.125782
-0.428904 -0.080270 1.958166 -0.742325 -0.504935 -0.440448
0.035411 -0.079341 1.780661 0.024665 -0.228173 0.973308
-0.114303 -0.860320 1.939762 -0.754985 -0.203082 0.623502
-0.289431 -0.169947 1.522004 -0.982370 0.186193 -0.016796
-0.145225 -0.056602 2.099709 -0.924880 -0.155078 -0.347200
-0.134892 0.317329 2.172061 -0.739307 -0.362288 -0.567602
-0.128701 0.187887 1.763877 -0.942299 -0.141060 0.303604
0.016981 -1.089477 1.851999 0.042386 0.269303 0.962122
-0.125072 -0.220584 1.517508 -0.930847 -0.344214 -0.122641
-0.126521 -0.226918 0.509041 -0.559313 -0.826593 -0.062561
0.100499 -0.189070 1.914282 -0.983281 0.174606 0.051679
-0.535468 2.257535 -0.253738 -0.581753 0.725070 0.368560
-0.080483 -0.270656 2.019216 -0.824741 -0.423382 0.374899
-0.393529 -0.366701 2.041928 -0.943218 -0.254905 -0.212987
-0.109759 -0.125095 2.075128 -0.892263 -0.307771 -0.330368
0.119086 -0.153435 1.455458 -0.978819 -0.198064 -0.051801
-0.438762 0.035441 1.915808 -0.879186 0.082637 0.469257
-0.129507 -0.888153 1.795838 -0.725451 -0.047076 0.686662
-0.280876 -0.429756 1.114319 -0.976673 0.209219 0.048353
-0.006559 2.506010 -0.815137 -0.836446 -0.218629 -0.502553
-0.094798 -0.238669 1.277791 -0.986778 0.142686 -0.076881
-0.355165 -0.974865 1.580676 -0.128927 0.291514 -0.947838
-0.044382 0.165582 1.991894 -0.981884 -0.137525 -0.130345
-0.013203 -0.583817 1.781331 -0.609954 0.063780 0.789866
-0.312610 -0.016490 1.946548 -0.934537 -0.023406 0.355095
-0.250969 -0.027214 1.840617 -0.877125 -0.293955 0.379793
0.088568 -0.722173 1.484438 -0.553500 -0.661745 -0.505699
-0.211063 -0.558467 1.612764 -0.296095 0.068110 -0.952727
0.001228 -0.476100 1.815554 0.284876 -0.227610 0.931149
0.103569 -0.367873 0.841605 -0.706117 0.688073 0.167193
0.007798 0.141979 1.485163 -0.722138 0.626698 -0.292858
0.087434 -0.075357 1.807398 -0.665138 -0.253445 0.702394
-0.229677 -0.131742 1.603452 -0.650879 -0.254161 0.715374
-0.000408 0.395870 0.919492 -0.166772 -0.245617 0.954913
0.106801 1.556969 0.550479 -0.298605 0.478207 0.825925
0.043516 -0.931594 1.873922 -0.795341 -0.602976 0.062064
0.154937 -0.376696 1.850741 -0.879564 0.160223 0.447992
-0.446984 -0.840664 1.938168 -0.666277 0.050870 0.743968
-0.019144 -0.422618 1.442523 -0.987446 0.098921 -0.123145
-0.124105 -0.086802 1.699223 -0.327150 0.636514 -0.698443
-0.115405 -0.147013 1.071081 -0.978564 -0.151298 0.139721
0.042543 2.388829 -0.640732 -0.956888 0.279906 -0.077568
-0.154737 0.145186 1.249071 -0.965680 -0.225423 -0.129019
-0.050117 0.444609 0.460417 -0.160049 -0.250942 0.954679
-0.307444 1.215391 0.636365 -0.241388 0.304083 0.921556
-0.126212 0.988368 0.955686 -0.139771 -0.188685 0.972040
-0.058628 1.074159 0.854048 -0.195258 0.104417 0.975178
-0.149684 1.311935 0.788395 -0.158903 -0.060586 0.985434
-0.235998 -0.176627 0.417875 -0.526878 -0.838516 -0.138891
0.010641 -0.170620 1.093487 -0.969233 0.213463 0.122561
0.111253 -1.262408 1.832884 0.373823 0.557725 0.741080
-0.080153 -0.243323 0.972744 -0.881226 -0.442499 0.166240
-0.363246 -0.259209 1.269640 -0.320655 -0.106342 -0.941208
-0.157205 2.267671 -0.606972 -0.619836 -0.410008 -0.669101
-0.179274 -0.230763 1.643506 -0.788153 -0.312946 -0.529981
-0.597928 -0.595506 1.745967 -0.772642 0.110935 0.625075
-0.213463 0.188505 1.588451 -0.677434 0.545921 -0.493005
-0.056595 2.540110 -0.285529 -0.737885 0.611166 0.286361
-0.043978 0.156015 1.759446 -0.766845 0.268815 0.582827
-0.510174 -0.784397 1.821258 -0.326028 0.251924 -0.911175
-0.212777 -0.823591 1.896957 0.107694 -0.133519 0.985177
-0.026281 -0.224134 0.733860 -0.699510 0.680008 0.219718
-0.274851 -0.239761 1.454127 -0.980221 0.057771 -0.189285
-0.050137 -0.547814 1.408429 -0.358594 -0.007696 0.933462
-0.345664 -0.383799 1.945359 -0.586768 -0.276079 0.761238
-0.007083 2.308019 0.071634 -0.611828 0.711143 0.346327
0.071426 -1.163920 1.957621 0.196352 0.345600 0.917609
-0.030914 0.025885 1.623578 -0.715997 -0.156258 0.680391
-0.200760 -0.133122 1.775157 -0.580658 -0.350342 0.734912
-0.178393 -0.229924 1.649706 -0.683139 -0.133388 0.718003
-0.280114 -1.374136 1.375707 -0.608526 -0.695378 -0.382291
-0.246169 -0.261268 1.446073 -0.851071 -0.243856 -0.464988
-0.066158 -0.737240 1.991394 -0.580345 -0.054280 0.812560
-0.158761 -0.138135 1.921452 -0.728661 -0.339398 0.594864
-0.147381 -0.049209 1.762334 -0.622925 -0.262895 0.736784
-0.026470 0.021601 2.011136 -0.658993 -0.221989 0.718644
-0.075354 -0.320908 0.555974 -0.675853 0.682461 0.278334
-0.136150 1.965811 -0.400433 -0.842858 -0.211962 -0.494634
-0.007327 0.050035 1.770936 -0.801700 0.005007 0.597706
-0.164865 0.064551 1.643601 -0.446958 0.548493 -0.706671
-0.396642 -0.474061 1.738754 -0.335932 -0.142309 -0.931073
-0.193211 0.205316 1.539417 -0.447949 0.700921 -0.555024
0.142119 -0.894841 1.705069 -0.447651 0.010391 -0.894148
-0.217956 0.202044 2.014080 -0.657244 0.746503 0.103747
-0.380620 -0.089782 1.679101 -0.602907 0.460613 -0.651413
-0.146946 -1.123985 1.690852 0.214642 0.257575 0.942117
-0.256659 -0.303367 1.832205 0.503582 -0.203764 0.839575
-0.036609 -0.008737 1.107764 -0.968060 -0.163189 0.190341
0.024771 0.108184 0.875610 -0.958414 0.222408 0.178824
-0.195985 -0.143456 1.306710 -0.882086 0.011087 -0.470959
-0.011885 -0.095865 0.571039 -0.633299 0.652725 0.415790
-0.239075 -0.183575 0.101312 -0.487062 -0.844699 -0.221934
-0.268109 -0.372553 1.734073 -0.336554 -0.075492 -0.938633
-0.429554 -0.400402 1.645189 -0.736597 0.123275 -0.665003
-0.260455 -0.691822 1.522834 -0.843723 0.160552 0.512206
0.058961 -0.288920 1.571351 -0.345856 -0.063257 -0.936153
-0.135118 -0.126478 2.078510 -0.673149 0.632234 0.383604
-0.295674 -0.978209 1.711480 -0.338496 0.330489 -0.881021
-0.288555 2.117026 -0.316483 -0.687828 -0.344919 -0.638689
-0.266361 -1.008944 1.274613 -0.682281 -0.480407 -0.551092
-0.036119 -1.201721 1.703664 -0.377594 -0.273941 0.884522
-0.182971 -0.287668 0.886012 -0.847827 -0.518170 0.112644
-0.153702 -0.298849 1.696985 -0.356908 -0.094675 -0.929329
-0.157493 2.564111 -0.555171 -0.961993 0.265172 -0.065215
-0.205006 -0.737522 1.908042 -0.760758 0.075200 0.644664
-0.467004 -0.676829 1.875322 -0.906282 -0.241760 0.346706
0.047195 -0.311365 1.639273 -0.638328 -0.290568 0.712817
-0.457835 -0.024675 1.647069 -0.505557 0.831390 -0.230658
-0.638969 -1.373785 1.338903 -0.634864 -0.628944 -0.448751
-0.265906 -0.140658 1.874802 -0.457788 -0.286533 -0.841623
-0.065521 2.165129 -0.223616 -0.618638 0.708825 0.338901
-0.194909 -0.105495 1.522489 -0.784658 -0.092305 -0.613018
-0.234655 0.015446 1.871342 -0.650794 0.082203 0.754791
-0.217511 -0.530787 1.406513 -0.384944 0.255542 -0.886858
-0.125043 0.073053 0.551961 -0.522508 0.454141 0.721624
-0.124122 -0.714264 1.652517 -0.719553 -0.213527 0.660794
-0.058483 0.083871 1.880389 -0.833359 0.242191 0.496846
-0.321638 -0.186277 1.585327 -0.637533 -0.200164 -0.743966
-0.355912 -0.876451 2.011136 -0.776048 0.013395 0.630532
-0.053300 -0.443503 1.617610 -0.137413 -0.005166 0.990500
-0.247934 -0.412936 1.993294 0.037305 -0.043861 0.998341
-0.315229 2.084760 -0.415093 -0.780747 0.571187 0.253335
-0.392140 -0.013882 1.790715 -0.683501 -0.200385 -0.701906
-0.375932 -0.093893 1.724945 -0.935194 -0.071394 0.346866
-0.263693 -0.279194 2.057297 -0.902273 -0.075964 0.424421
-0.101831 -0.540044 1.621724 -0.698715 0.275293 -0.660312
-0.386885 -0.166400 1.798849 -0.903935 -0.114650 0.412016
0.060966 -0.137795 1.335066 -0.659363 0.411297 -0.629346
0.054344 -0.188120 1.602445 -0.750150 0.010591 -0.661183
0.011763 -0.066742 1.612491 -0.879052 0.010276 0.476616
-0.184605 -0.907293 1.905635 -0.613606 -0.546945 0.569507
-0.276249 -0.050628 0.581536 -0.817075 -0.574450 0.048937
-0.023996 -1.081589 1.698425 0.673224 0.360273 0.645734
-0.200018 -0.125738 1.904838 -0.876908 -0.162765 -0.452262
-0.156191 0.045092 1.780377 -0.760187 -0.252391 0.598677
-0.022241 0.019689 0.619831 -0.945852 0.252113 0.204459
-0.508373 -0.246882 1.761665 -0.887288 -0.229239 0.400211
-0.006500 2.244802 -0.428584 -0.877342 -0.187628 -0.441664
-0.292469 -0.308732 1.651623 -0.801159 0.091519 0.591412
-0.499868 -0.983876 1.551609 -0.512385 -0.516051 -0.686405
-0.252079 -0.424960 1.566289 -0.837533 -0.239069 0.491308
-0.363941 1.931881 -0.346094 -0.751897 -0.252290 -0.609098
-0.356137 -0.717177 1.552964 -0.987297 -0.022136 -0.157334
-0.370986 0.178632 0.465802 -0.351818 0.197182 0.915065
-0.102539 -0.525008 1.810915 -0.947229 0.076878 0.311203
-0.335278 -0.027647 2.037177 -0.874373 0.016329 0.484979
-0.306036 -0.491424 1.984307 0.582263 -0.154165 0.798250
-0.185136 -0.011325 1.834133 -0.879460 -0.160891 0.447956
-0.444991 -0.720696 1.807398 -0.945824 0.106638 -0.306669
-0.058616 -0.386309 1.319114 -0.883273 -0.119616 -0.453344
-0.663039 -0.372606 0.812924 -0.968966 -0.167697 0.181613
-0.277199 1.912877 0.207884 -0.618660 0.694103 0.368078
-0.315042 0.611233 -0.388385 -0.662534 -0.383235 -0.643568
-0.090574 -0.204191 1.768906 -0.839194 -0.108421 -0.532915
-0.143174 -1.121882 1.383947 -0.815563 -0.157978 -0.556686
-0.111153 -0.190521 1.786295 -0.998884 -0.023100 0.041189
-0.299737 -0.838327 1.709005 -0.797187 -0.034269 0.602760
0.103421 -0.929662 1.453569 -0.726392 -0.678898 0.107015
-0.295355 -1.140675 1.867244 -0.638374 -0.586227 -0.498816
-0.213867 -0.459521 1.802427 -0.715062 0.178381 0.675919
-0.333320 -0.060205 1.485115 -0.996522 -0.057363 0.060446
0.003345 -0.199612 1.665681 -0.994096 -0.101288 0.038920
-0.378309 0.189820 -0.057318 -0.581922 -0.608814 -0.539178
-0.459878 -0.684412 1.576735 -0.771780 0.254797 -0.582609
-0.268983 -0.989090 1.768714 -0.853806 -0.399703 -0.333546
0.136143 -0.162197 1.544237 -0.885208 -0.135065 -0.445156
-0.261414 0.385457 -0.204363 -0.715059 -0.270670 -0.644538
-0.344303 -0.912668 1.964134 0.235030 0.156549 0.959298
-0.214049 0.167059 1.646674 -0.936431 0.283503 0.206695
-0.177482 -0.207985 1.793413 -0.969892 -0.141196 0.198429
-0.266276 -0.117959 1.652517 -0.796191 0.451756 -0.402487
-0.133720 -0.744886 1.629735 0.013512 -0.005117 0.999896
-0.480347 2.196552 -0.439767 -0.968606 0.245595 -0.038534
-0.461798 -0.057236 0.080654 -0.469489 -0.794322 -0.385529
-0.825106 -0.876778 1.533179 0.256388 0.076190 0.963566
-0.203400 -0.073981 2.098856 -0.990589 -0.098978 0.094532
0.029308 -0.286213 1.811247 -0.987644 -0.115179 0.106267
-0.176793 -0.130713 1.638843 -0.891288 -0.130101 -0.434372
-0.196797 0.033519 1.776457 -0.854475 -0.116044 -0.506365
-0.074004 -0.065040 1.288868 -0.883674 -0.124772 -0.451168
-0.277087 -0.188868 1.915395 -0.889640 0.054316 -0.453420
-0.324281 -0.117621 1.168401 -0.990245 -0.098045 0.099007
-0.174396 -0.862677 1.428549 -0.819828 0.101748 -0.563497
-0.097637 2.171891 -0.234685 -0.812512 0.538478 0.223308
-0.040639 -0.188610 1.464650 -0.961691 -0.160461 0.222268
-0.412699 0.055070 0.516594 -0.927781 0.284885 0.240963
-0.263504 -0.778002 1.989566 -0.977309 0.207420 0.042930
-0.544439 -0.128880 1.697803 -0.998184 -0.060235 -0.000764
-0.257017 -0.803835 1.844372 0.181902 0.003381 0.983311
-0.354361 -0.413551 0.472858 -0.758212 -0.651136 0.033712
-0.151098 -0.542762 1.919568 0.138956 -0.042597 0.989382
-0.146886 0.073180 0.467395 -0.278133 0.044130 0.959528
-0.058133 0.072509 1.492003 -0.990735 -0.129071 0.042238
0.003259 -0.439632 1.790814 -0.994182 -0.067009 -0.084332
0.026527 1.892329 -0.392339 -0.795755 -0.114950 -0.594609
-0.568131 1.620263 -0.473189 -0.618618 0.290427 -0.730044
-0.220661 -0.296006 1.452872 -0.931935 0.359671 -0.046193
-0.445998 -0.738081 1.742991 0.786584 0.154446 0.597856
-0.101950 1.840538 0.045053 -0.596280 0.286626 -0.749864
-0.332187 0.068903 1.803929 -0.975529 -0.098994 0.196323
-0.338221 0.280719 1.597738 -0.972484 0.064918 0.223742
-0.326674 -0.559115 1.701934 0.679500 -0.081471 0.729138
-0.385837 -0.350592 1.647953 -0.972477 0.094741 -0.212866
-0.292926 -0.240323 1.754088 -0.988431 -0.015705 -0.150857
-0.046169 2.343085 -0.567647 -0.917607 -0.134633 -0.373993
-0.102810 1.376702 -0.335999 -0.619754 0.310276 -0.720856
-0.215514 0.482040 0.041762 -0.670926 -0.193682 -0.715784
-0.277863 -0.422216 1.686835 -0.996930 -0.077552 0.010811
-0.765692 -0.390964 0.609854 -0.966196 -0.181704 0.182892
-0.341114 1.769408 0.254737 -0.633628 0.629532 0.449672
-0.174838 -0.884563 1.624991 -0.527840 -0.139508 0.837808
-0.164718 -0.670410 1.882687 0.744894 0.019639 0.666893
-0.184230 0.419094 -0.112610 -0.808940 -0.366789 -0.459437
-0.418978 -0.805419 1.664785 -0.870506 -0.316801 -0.376637
-0.252972 -0.135196 1.790204 -0.997331 0.064398 0.034413
-0.362937 -0.858300 1.539047 -0.941151 -0.136939 -0.309001
-0.034246 -0.014870 0.468707 -0.871659 0.265564 0.411930
-0.001716 -0.487310 1.738549 -0.909581 0.254124 -0.328761
-0.088972 -1.087335 1.483408 0.187951 0.064336 0.980069
-0.265612 -0.691818 2.041791 -0.683265 0.188326 0.705466
-0.134808 -0.727741 1.913263 0.150761 -0.023100 0.988300
-0.395768 2.120933 -0.350084 -0.973115 0.229021 -0.024424
-0.005225 1.594070 -0.549863 -0.639320 0.245631 -0.728653
-0.114270 0.326650 0.559381 -0.311218 -0.084359 0.946587
-0.312870 1.896708 0.298539 -0.829052 0.521970 0.200548
-0.141251 -0.642067 1.722990 -0.917622 0.138463 -0.372557
-0.261712 -0.762247 1.433849 -0.937908 0.028580 -0.345706
-0.146282 -0.798359 2.085042 0.158203 0.007267 0.987380
-0.369832 1.965241 -0.356825 -0.808731 0.136689 -0.572075
-0.209681 -0.231514 1.604013 -0.958383 0.282632 0.040256
-0.368366 0.915484 -0.529074 -0.643914 -0.019725 -0.764844
-0.480873 -0.934959 1.673431 -0.735871 -0.284498 -0.614456
-0.370465 -1.200596 1.722852 -0.793010 -0.258113 0.551827
-0.337520 1.282565 -0.574420 -0.642874 0.146510 -0.751830
-0.125661 0.212053 -0.524922 -0.899214 -0.201708 -0.388237
-0.440038 -0.157511 0.443320 -0.686180 -0.727387 0.008099
-0.151415 2.039506 -0.185475 -0.946073 -0.065155 -0.317334
-0.416130 -0.188323 0.438537 -0.919009 -0.259663 0.296645
-0.079036 -0.797057 1.852885 -0.933912 -0.127544 -0.333976
-0.246034 -0.870235 2.228013 -0.600963 -0.059049 0.797092
-0.285541 2.123486 0.424133 -0.645473 0.532165 0.547873
-0.467027 -0.729048 1.536043 -0.831285 -0.285913 -0.476674
-0.457072 -0.619613 1.808316 -0.940320 -0.323024 0.107020
-0.301465 0.111076 0.773315 -0.723190 0.113318 0.681289
-0.046952 -0.646103 2.057928 -0.598379 0.079699 0.797239
-0.255040 0.545505 -0.270739 -0.901856 -0.194197 -0.385931
-0.440104 0.046611 -0.045756 -0.754553 -0.365257 -0.545195
-0.114883 0.546212 0.169458 -0.398724 -0.164849 0.902133
-0.288344 -0.826656 2.129186 -0.609622 -0.001339 0.792691
-0.122709 -0.724212 1.727644 -0.937238 -0.017278 -0.348263
-0.366322 -1.026858 1.662361 -0.851614 -0.146569 -0.503260
-0.239065 1.767593 -0.215144 -0.860293 0.184849 -0.475108
-0.512462 1.945869 0.059210 -0.972750 0.230667 -0.023441
-0.415105 1.739007 0.072841 -0.840466 0.505100 0.196191
-0.157210 -0.760454 1.782271 -0.925895 0.057338 -0.373404
-0.185889 -0.975702 1.980550 -0.900305 -0.102291 0.423069
-0.072498 -0.815789 1.558228 -0.974106 0.157801 -0.161916
-0.191166 1.422626 -0.350955 -0.846601 0.223541 -0.483008
-0.247488 -0.772775 1.732950 -0.867504 -0.106445 -0.485908
-0.154633 -0.820859 1.863589 -0.900265 -0.053792 -0.432006
-0.142863 -0.364455 0.033345 -0.518194 -0.674123 -0.526340
-0.086461 -0.417829 1.549140 -0.959316 0.210431 0.188232
-0.010578 -0.846094 1.961559 -0.989164 -0.117021 -0.088659
-0.152457 1.729534 0.415560 -0.618904 0.469115 0.629991
-0.308931 0.130421 -0.266192 -0.944154 -0.179016 -0.276633
-0.510248 0.517983 0.750557 -0.418506 -0.238861 0.876241
-0.396861 -0.583943 1.906196 -0.925023 -0.043171 -0.377450
-0.424504 1.688935 -0.100132 -0.958311 0.026894 -0.284459
-0.383281 -0.700563 1.763749 -0.931769 0.026207 0.362103
-0.038155 -0.494268 1.456309 -0.994591 -0.006437 -0.103674
-0.447066 0.583642 -0.513819 -0.882601 -0.166770 -0.439550
-0.177031 -0.355530 0.469921 -0.556760 0.001537 0.830672
-0.545677 1.099426 -0.272103 -0.858573 0.243514 -0.451168
-0.343903 0.144222 -0.007429 -0.908584 -0.161228 -0.385333
-0.308001 0.101138 0.452679 -0.812668 -0.394460 0.428919
-0.391284 1.397361 0.585054 -0.543594 0.366520 0.755096
-0.122604 0.696511 0.603533 -0.357674 -0.276248 0.892052
-0.354138 1.332147 -0.324954 -0.923879 0.164623 -0.345466
-0.087946 1.982332 -0.042170 -0.968666 0.245971 -0.034417
-0.414729 -0.137183 0.119947 -0.595752 -0.801999 -0.043330
-0.504255 1.042747 0.728801 -0.338479 -0.185946 0.922419
-0.197365 1.181691 0.692174 -0.451244 0.163732 0.877252
0.022795 1.370485 0.447658 -0.380813 -0.023086 0.924364
-0.072904 0.034874 -0.081968 -0.471870 -0.190024 -0.860947
-0.120644 1.565855 0.410128 -0.858218 0.461726 0.224209
-0.196001 1.293150 -0.474876 -0.847492 0.229222 -0.478763
-0.024045 2.008738 0.237353 -0.955898 0.122870 -0.266762
-0.078041 1.003402 -0.288995 -0.874102 -0.033423 -0.484591
-0.368453 0.208728 -0.411574 -0.737807 -0.519457 -0.431052
-0.291743 1.445200 -0.084995 -0.846146 0.137427 -0.514928
-0.468589 1.634293 -0.486534 -0.921883 0.187498 -0.339083
-0.346631 0.136102 0.626516 -0.478443 -0.013578 0.878014
-0.185125 -0.053563 0.144203 -0.306055 -0.673736 -0.672615
-0.254912 0.700380 -0.237495 -0.464094 -0.328484 -0.822627
-0.503280 0.260822 0.324988 -0.951757 -0.060739 -0.300782
-0.119675 0.012879 -0.099822 -0.621190 0.277342 -0.732943
-0.162099 2.009116 0.156808 -0.963077 0.265241 -0.046151
-0.140738 0.573667 -1.965555 0.985678 0.054447 0.159605
-0.287817 1.635023 -0.231237 -0.901995 0.257459 -0.346584
-0.175885 1.822572 0.029122 -0.867871 0.422227 0.261769
-0.255934 0.095852 0.212013 0.172912 0.081699 -0.981543
-0.250246 0.640946 -1.880867 0.881817 -0.440213 0.169149
-0.356003 1.496412 0.079642 -0.948592 0.179990 -0.260340
-0.408469 1.036415 -0.139267 -0.540809 -0.006236 -0.841122
-0.581259 0.550665 0.411607 -0.619538 -0.021495 0.784673
-0.372850 0.768167 -1.935547 0.678837 -0.456426 -0.575201
-0.463634 0.615181 -1.836371 0.846136 -0.459028 0.270825
-0.478148 0.663642 -1.960251 0.679577 0.042316 -0.732383
-0.416135 -0.119844 0.461769 -0.534709 -0.826354 -0.176707
-0.284685 -0.193944 -0.183984 0.131831 -0.729712 -0.670925
-0.590176 1.041924 -0.221620 -0.605290 0.226924 -0.762974
-0.326459 0.399899 -2.168298 0.733857 -0.403946 -0.546152
-0.413077 0.566018 -2.167360 0.942565 0.309588 0.125401
-0.655942 0.090760 0.277532 -0.716550 -0.403237 0.569171
-0.779834 0.923099 -0.202773 0.479189 -0.204820 -0.853479
-0.216134 1.605500 -0.363261 -0.758026 0.413608 -0.504306
-0.444913 0.684131 -0.042670 0.200498 -0.764443 -0.612721
-0.256615 0.589734 0.485702 -0.749771 -0.115172 0.651598
-0.322947 0.077129 -0.061359 -0.936978 -0.203981 -0.283662
-0.465799 0.646495 -1.812221 0.617177 0.215464 -0.756748
-0.232650 0.136277 -2.011944 0.635124 -0.112305 0.764202
-0.233142 0.767733 -1.989602 0.615787 -0.520456 0.591550
-0.346791 1.565414 0.218208 -0.955205 0.292222 -0.046794
-0.206321 0.368481 0.050246 0.007638 0.698632 -0.715441
-0.312578 0.702144 -1.647857 0.556130 -0.563854 0.610564
-0.252164 1.499558 0.311239 -0.837564 0.438113 0.326411
-0.579152 1.395134 0.278583 -0.936803 0.228925 -0.264562
-0.197961 0.891129 -0.244702 0.327801 0.150151 -0.932738
-0.681612 0.246506 0.238426 -0.853805 0.379387 -0.356487
-0.469678 0.092290 -0.067360 0.725594 0.212760 -0.654405
-0.283734 0.596214 -1.704432 0.610173 0.118510 0.783355
-0.467153 0.797643 -1.913450 0.923601 0.367860 0.107885
-0.310103 0.326018 0.483648 -0.721934 -0.256818 0.642538
-0.295448 0.713159 -0.452530 0.833726 -0.101251 -0.542816
-0.502311 -0.082469 0.158999 0.656980 -0.612832 -0.439105
-0.266878 1.120727 -0.506610 0.085518 0.432371 -0.897632
-0.355790 0.361756 -0.078283 -0.551710 -0.808439 -0.205042
-0.394092 0.617595 -1.887084 0.606073 0.271109 -0.747780
-0.244804 -0.045142 0.258932 -0.472150 -0.832092 -0.291029
-0.436259 0.490277 0.122858 -0.891821 -0.373890 -0.254679
-0.579488 0.221261 0.300800 -0.662812 0.063182 0.746115
-0.302805 0.548740 -0.548560 0.604520 -0.706016 -0.368912
-0.281034 1.567776 1.116335 -0.767160 0.451709 0.455439
-0.543317 0.799393 -0.522863 0.936275 -0.084112 -0.341049
